# .PCD v0.7 - Point Cloud Data file format
VERSION 0.7
FIELDS x y z rgba
SIZE 4 4 4 4
TYPE F F F U
COUNT 1 1 1 1
WIDTH 679
HEIGHT 1
VIEWPOINT 0 0 0 1 0 0 0
POINTS 679
DATA ascii
-0.1178343594074249 -0.1458579897880554 0.7170000076293945 4285748585
-0.1165280267596245 -0.1458579897880554 0.7170000076293945 4285025888
-0.115221694111824 -0.1458579897880554 0.7170000076293945 4284631645
-0.110456608235836 -0.1464682966470718 0.7200000286102295 4291517830
-0.1091448068618774 -0.1464682966470718 0.7200000286102295 4292704396
-0.1078330054879189 -0.1464682966470718 0.7200000286102295 4292245373
-0.1045979112386703 -0.1438237279653549 0.7070000171661377 4289293460
-0.1033097952604294 -0.1438237279653549 0.7070000171661377 4286404504
-0.1018773764371872 -0.1436202824115753 0.7059999704360962 4284830860
-0.1005910858511925 -0.1436202824115753 0.7059999704360962 4284308108
-0.09930478781461716 -0.1436202824115753 0.7059999704360962 4284438917
-0.09774082899093628 -0.1432134211063385 0.7039999961853027 4284241277
-0.09645818918943405 -0.1432134211063385 0.7039999961853027 4283912311
-0.09504035115242004 -0.1430100053548813 0.703000009059906 4283451759
-0.1226024031639099 -0.1455587446689606 0.7220000028610229 4287789192
-0.1209509894251823 -0.1451555341482162 0.7200000286102295 4287591560
-0.11947301030159 -0.1449539065361023 0.718999981880188 4287064957
-0.1181630343198776 -0.1449539065361023 0.718999981880188 4285749353
-0.1168530657887459 -0.1449539065361023 0.718999981880188 4284697432
-0.1155430898070335 -0.1449539065361023 0.718999981880188 4284105806
-0.1143919974565506 -0.1451555341482162 0.7200000286102295 4284956237
-0.113080196082592 -0.1451555341482162 0.7200000286102295 4286269273
-0.1120788604021072 -0.1455587446689606 0.7220000028610229 4289481322
-0.1103031784296036 -0.1449539065361023 0.718999981880188 4292961164
-0.1086900308728218 -0.1445507109165192 0.7170000076293945 4293096320
-0.1072339341044426 -0.1443491131067276 0.7160000205039978 4293164409
-0.1054855808615685 -0.1437442898750305 0.7129999995231628 4291135397
-0.1033097952604294 -0.1425346583127975 0.7070000171661377 4287458466
-0.1020216792821884 -0.1425346583127975 0.7070000171661377 4284962955
-0.1005910858511925 -0.1423330456018448 0.7059999704360962 4284308618
-0.09930478781461716 -0.1423330456018448 0.7059999704360962 4284439431
-0.09801850467920303 -0.1423330456018448 0.7059999704360962 4284306817
-0.09673220664262772 -0.1423330456018448 0.7059999704360962 4284043645
-0.09517553448677063 -0.1419298499822617 0.7039999961853027 4282990702
-0.09375952184200287 -0.1417282372713089 0.703000009059906 4281410104
-0.1252332925796509 -0.1442423313856125 0.7220000028610229 4288973206
-0.1239178478717804 -0.1442423313856125 0.7220000028610229 4288709267
-0.1226024031639099 -0.1442423313856125 0.7220000028610229 4288381334
-0.1209509894251823 -0.1438427716493607 0.7200000286102295 4288052886
-0.11947301030159 -0.1436429768800735 0.718999981880188 4287395205
-0.1181630343198776 -0.1436429768800735 0.718999981880188 4285619303
-0.1168530657887459 -0.1436429768800735 0.718999981880188 4284500303
-0.1155430898070335 -0.1436429768800735 0.718999981880188 4283776575
-0.1143919974565506 -0.1438427716493607 0.7200000286102295 4286462288
-0.113080196082592 -0.1438427716493607 0.7200000286102295 4290008441
-0.1117683947086334 -0.1438427716493607 0.7200000286102295 4292566912
-0.1103031784296036 -0.1436429768800735 0.718999981880188 4293088884
-0.1086900308728218 -0.1432434171438217 0.7170000076293945 4292038750
-0.1072339341044426 -0.1430436372756958 0.7160000205039978 4293553521
-0.1054855808615685 -0.1424442827701569 0.7129999995231628 4292187578
-0.1034559160470963 -0.1414453834295273 0.7080000042915344 4287854513
-0.1021659821271896 -0.1414453834295273 0.7080000042915344 4284963468
-0.100733570754528 -0.1412456035614014 0.7070000171661377 4284439945
-0.09930478781461716 -0.1410458087921143 0.7059999704360962 4284439430
-0.09801850467920303 -0.1410458087921143 0.7059999704360962 4284175487
-0.09673220664262772 -0.1410458087921143 0.7059999704360962 4283582834
-0.09517553448677063 -0.1406462639570236 0.7039999961853027 4281017669
-0.0938928946852684 -0.1406462639570236 0.7039999961853027 4279437073
-0.09247869253158569 -0.1404464691877365 0.703000009059906 4281276182
-0.1252332925796509 -0.1429259181022644 0.7220000028610229 4291932862
-0.1239178478717804 -0.1429259181022644 0.7220000028610229 4290287782
-0.1226024031639099 -0.1429259181022644 0.7220000028610229 4288710039
-0.12128696590662 -0.1429259181022644 0.7220000028610229 4288118420
-0.1199715211987495 -0.1429259181022644 0.7220000028610229 4287396227
-0.1183273941278458 -0.1425300091505051 0.7200000286102295 4285357408
-0.1170155927538872 -0.1425300091505051 0.7200000286102295 4284827209
-0.1160251870751381 -0.1429259181022644 0.7220000028610229 4285745998
-0.1147097423672676 -0.1429259181022644 0.7220000028610229 4288894824
-0.1133943051099777 -0.1429259181022644 0.7220000028610229 4291389570
-0.1117683947086334 -0.1425300091505051 0.7200000286102295 4292566394
-0.1103031784296036 -0.1423320472240448 0.718999981880188 4292100962
-0.1086900308728218 -0.1419361233711243 0.7170000076293945 4290985569
-0.1072339341044426 -0.1417381763458252 0.7160000205039978 4293355918
-0.1054855808615685 -0.1411442905664444 0.7129999995231628 4292450764
-0.1037481650710106 -0.1405504196882248 0.7099999785423279 4287196842
-0.1024545878171921 -0.1405504196882248 0.7099999785423279 4284173952
-0.100733570754528 -0.1399565488100052 0.7070000171661377 4283979392
-0.09944545477628708 -0.1399565488100052 0.7070000171661377 4283978623
-0.09801850467920303 -0.1397585868835449 0.7059999704360962 4282399079
-0.09673220664262772 -0.1397585868835449 0.7059999704360962 4281540165
-0.095445916056633 -0.1397585868835449 0.7059999704360962 4282984011
-0.09415963292121887 -0.1397585868835449 0.7059999704360962 4287264322
-0.09261024743318558 -0.1393626630306244 0.7039999961853027 4290622286
-0.09132759273052216 -0.1393626630306244 0.7039999961853027 4292398498
-0.09004495292901993 -0.1393626630306244 0.7039999961853027 4294242542
-0.1226024031639099 -0.1416095197200775 0.7220000028610229 4289039000
-0.12128696590662 -0.1416095197200775 0.7220000028610229 4288315277
-0.1199715211987495 -0.1416095197200775 0.7220000028610229 4287462269
-0.1186560764908791 -0.1416095197200775 0.7220000028610229 4284962901
-0.1173406392335892 -0.1416095197200775 0.7220000028610229 4285479746
-0.1160251870751381 -0.1416095197200775 0.7220000028610229 4288698469
-0.1147097423672676 -0.1416095197200775 0.7220000028610229 4290933125
-0.113080196082592 -0.1412172466516495 0.7200000286102295 4291063173
-0.1117683947086334 -0.1412172466516495 0.7200000286102295 4291187567
-0.1103031784296036 -0.1410211026668549 0.718999981880188 4291249507
-0.1086900308728218 -0.140628844499588 0.7170000076293945 4291318906
-0.1072339341044426 -0.1404327005147934 0.7160000205039978 4293295526
-0.1056335270404816 -0.1400404274463654 0.7139999866485596 4292385989
-0.1038942858576775 -0.1394520252943039 0.7110000252723694 4287195281
-0.1024545878171921 -0.1392558962106705 0.7099999785423279 4283975280
-0.100876048207283 -0.1388636231422424 0.7080000042915344 4283714164
-0.0995861142873764 -0.1388636231422424 0.7080000042915344 4282596198
-0.09815734624862671 -0.138667494058609 0.7070000171661377 4280227908
-0.09686923027038574 -0.138667494058609 0.7070000171661377 4281534282
-0.095445916056633 -0.1384713500738144 0.7059999704360962 4288501154
-0.09415963292121887 -0.1384713500738144 0.7059999704360962 4293840841
-0.09287333488464355 -0.1384713500738144 0.7059999704360962 4294966986
-0.09158704429864883 -0.1384713500738144 0.7059999704360962 4294967277
-0.1201376840472221 -0.1404874175786972 0.7229999899864197 4287853948
-0.1183273941278458 -0.1399044990539551 0.7200000286102295 4286275166
-0.1170155927538872 -0.1399044990539551 0.7200000286102295 4287777881
-0.1160251870751381 -0.1402931064367294 0.7220000028610229 4290930553
-0.1147097423672676 -0.1402931064367294 0.7220000028610229 4291654537
-0.113080196082592 -0.1399044990539551 0.7200000286102295 4290470266
-0.1117683947086334 -0.1399044990539551 0.7200000286102295 4289811310
-0.1103031784296036 -0.1397101581096649 0.718999981880188 4290008177
-0.1086900308728218 -0.1393215507268906 0.7170000076293945 4290011013
-0.1072339341044426 -0.1391272395849228 0.7160000205039978 4290275988
-0.1056335270404816 -0.1387386173009872 0.7139999866485596 4288573065
-0.1041865348815918 -0.1385442912578583 0.7129999995231628 4285353568
-0.1025988906621933 -0.1381556838750839 0.7110000252723694 4283446874
-0.101161003112793 -0.137961357831955 0.7099999785423279 4281541196
-0.09986742585897446 -0.137961357831955 0.7099999785423279 4282064448
-0.09829617291688919 -0.1375727504491806 0.7080000042915344 4286735748
-0.09686923027038574 -0.1373784244060516 0.7070000171661377 4290486724
-0.095445916056633 -0.1371841132640839 0.7059999704360962 4293446892
-0.09415963292121887 -0.1371841132640839 0.7059999704360962 4294964223
-0.09287333488464355 -0.1371841132640839 0.7059999704360962 4294967295
-0.1196391955018044 -0.1385917365550995 0.7200000286102295 4288376695
-0.1183273941278458 -0.1385917365550995 0.7200000286102295 4288703340
-0.1170155927538872 -0.1385917365550995 0.7200000286102295 4290536057
-0.1160251870751381 -0.1389767080545425 0.7220000028610229 4291978375
-0.1147097423672676 -0.1389767080545425 0.7220000028610229 4291256183
-0.1133943051099777 -0.1389767080545425 0.7220000028610229 4289809245
-0.1120788604021072 -0.1389767080545425 0.7220000028610229 4287975526
-0.1103031784296036 -0.1383992284536362 0.718999981880188 4287322223
-0.1086900308728218 -0.1380142718553543 0.7170000076293945 4286863223
-0.1072339341044426 -0.1378217786550522 0.7160000205039978 4285087845
-0.1056335270404816 -0.1374367922544479 0.7139999866485596 4283246910
-0.1043326556682587 -0.1374367922544479 0.7139999866485596 4282260521
-0.1025988906621933 -0.1368593275547028 0.7110000252723694 4281932327
-0.1013034954667091 -0.1368593275547028 0.7110000252723694 4282196782
-0.09986742585897446 -0.1366668343544006 0.7099999785423279 4285349967
-0.09857384860515594 -0.1366668343544006 0.7099999785423279 4291999426
-0.09728027135133743 -0.1366668343544006 0.7099999785423279 4294966270
-0.09598668664693832 -0.1366668343544006 0.7099999785423279 4294967295
-0.1103031784296036 -0.1370882987976074 0.718999981880188 4286205284
-0.1086900308728218 -0.1367069631814957 0.7170000076293945 4284893015
-0.1073836982250214 -0.1367069631814957 0.7170000076293945 4281344300
-0.1059294193983078 -0.1365163177251816 0.7160000205039978 4279436814
-0.1043326556682587 -0.1361349672079086 0.7139999866485596 4280750619
-0.103031799197197 -0.1361349672079086 0.7139999866485596 4285618752
-0.1013034954667091 -0.1355629861354828 0.7110000252723694 4290029183
-0.1000080928206444 -0.1355629861354828 0.7110000252723694 4292265404
-0.09871269017457962 -0.1355629861354828 0.7110000252723694 4294175725
-0.1089932098984718 -0.1357773542404175 0.718999981880188 4284166471
-0.1073836982250214 -0.1353996694087982 0.7170000076293945 4280290582
-0.1059294193983078 -0.1352108418941498 0.7160000205039978 4278976542
-0.1046249121427536 -0.1352108418941498 0.7160000205039978 4282394719
-0.1033204048871994 -0.1352108418941498 0.7160000205039978 4290289316
-0.1015884503722191 -0.1346442997455597 0.7129999995231628 4294504668
-0.1002894043922424 -0.1346442997455597 0.7129999995231628 4294967289
-0.09899035841226578 -0.1346442997455597 0.7129999995231628 4294967295
-0.1073836982250214 -0.134092390537262 0.7170000076293945 4288045459
-0.1060773655772209 -0.134092390537262 0.7170000076293945 4289566904
-0.1047710403800011 -0.134092390537262 0.7170000076293945 4291016916
-0.09215907007455826 -0.1582072526216507 0.6909999847412109 4284433751
-0.09368842095136642 -0.1574016213417053 0.6930000185966492 4289170568
-0.09536206722259521 -0.1568140238523483 0.6959999799728394 4289699750
-0.09368842095136642 -0.1561381071805954 0.6930000185966492 4286412660
-0.09242581576108932 -0.1561381071805954 0.6930000185966492 4284110434
-0.09536206722259521 -0.1555450111627579 0.6959999799728394 4284569963
-0.09368842095136642 -0.1548745781183243 0.6930000185966492 4283651184
-0.09242581576108932 -0.1548745781183243 0.6930000185966492 4283716464
-0.09663014113903046 -0.1542760133743286 0.6959999799728394 4285619301
-0.09508804231882095 -0.1538326889276505 0.6940000057220459 4282265930
-0.09368842095136642 -0.153611034154892 0.6930000185966492 4282860137
-0.09242581576108932 -0.153611034154892 0.6930000185966492 4283846515
-0.09945124387741089 -0.153446689248085 0.6980000138282776 4288907691
-0.09803887456655502 -0.1532268673181534 0.6970000267028809 4286408834
-0.09663014113903046 -0.1530070006847382 0.6959999799728394 4283909723
-0.09508804231882095 -0.1525673419237137 0.6940000057220459 4282660955
-0.09382361173629761 -0.1525673419237137 0.6940000057220459 4283319668
-0.09242581576108932 -0.1523475050926208 0.6930000185966492 4283780470
-0.1010115593671799 -0.1526100635528564 0.699999988079071 4291995336
-0.09945124387741089 -0.1521740406751633 0.6980000138282776 4288249756
-0.09803887456655502 -0.1519560366868973 0.6970000267028809 4284962417
-0.09663014113903046 -0.1517380028963089 0.6959999799728394 4283319646
-0.09508804231882095 -0.1513019800186157 0.6940000057220459 4282990947
-0.09382361173629761 -0.1513019800186157 0.6940000057220459 4283385713
-0.1010115593671799 -0.1513337790966034 0.699999988079071 4292456654
-0.09945124387741089 -0.1509014070034027 0.6980000138282776 4288447647
-0.09803887456655502 -0.1506852060556412 0.6970000267028809 4284897148
-0.09663014113903046 -0.1504690051078796 0.6959999799728394 4283254131
-0.09508804231882095 -0.150036633014679 0.6940000057220459 4282990696
-0.09382361173629761 -0.150036633014679 0.6940000057220459 4283319655
-0.1010115593671799 -0.1500574797391891 0.699999988079071 4291866578
-0.09945124387741089 -0.149628758430481 0.6980000138282776 4287856285
-0.09803887456655502 -0.1494143754243851 0.6970000267028809 4284568700
-0.09663014113903046 -0.1492000073194504 0.6959999799728394 4283188339
-0.09536206722259521 -0.1492000073194504 0.6959999799728394 4282924645
-0.09382361173629761 -0.148771271109581 0.6940000057220459 4283187555
-0.1040061265230179 -0.1494188159704208 0.703000009059906 4293574106
-0.1027252972126007 -0.1494188159704208 0.703000009059906 4291010755
-0.1011558622121811 -0.1489937305450439 0.7009999752044678 4287787945
-0.09973620623350143 -0.1487811952829361 0.699999988079071 4285486489
-0.09817953407764435 -0.148356094956398 0.6980000138282776 4284173434
-0.09676898270845413 -0.1481435596942902 0.6970000267028809 4283254628
-0.09536206722259521 -0.1479310095310211 0.6959999799728394 4282925408
-0.1040061265230179 -0.1481370627880096 0.703000009059906 4292262348
-0.1027252972126007 -0.1481370627880096 0.703000009059906 4287989146
-0.1014444679021835 -0.1481370627880096 0.703000009059906 4283843705
-0.09987868368625641 -0.1477156132459641 0.7009999752044678 4283514508
-0.09817953407764435 -0.1470834612846375 0.6980000138282776 4283910784
-0.09676898270845413 -0.1468727439641953 0.6970000267028809 4283385706
-0.09536206722259521 -0.1466620117425919 0.6959999799728394 4283253863
-0.09409399330615997 -0.1466620117425919 0.6959999799728394 4283319142
-0.09282592684030533 -0.1466620117425919 0.6959999799728394 4283253343
-0.09155785292387009 -0.1466620117425919 0.6959999799728394 4283450974
-0.1027252972126007 -0.1468552947044373 0.703000009059906 4286540409
-0.1014444679021835 -0.1468552947044373 0.703000009059906 4283516015
-0.100163646042347 -0.1468552947044373 0.703000009059906 4283452043
-0.0984608456492424 -0.1462285965681076 0.699999988079071 4283846534
-0.09690780937671661 -0.1458108127117157 0.6980000138282776 4283648890
-0.09549908339977264 -0.1456019133329391 0.6970000267028809 4283517039
-0.09422919899225235 -0.1456019133329391 0.6970000267028809 4283056481
-0.09295930713415146 -0.1456019133329391 0.6970000267028809 4282858327
-0.09168940782546997 -0.1456019133329391 0.6970000267028809 4283383897
-0.1176700219511986 -0.1482655107975006 0.7160000205039978 4285683040
-0.1163654997944832 -0.1482655107975006 0.7160000205039978 4285354592
-0.115221694111824 -0.1484725922346115 0.7170000076293945 4285486694
-0.1028714179992676 -0.1457806080579758 0.7039999961853027 4286536562
-0.1015887707471848 -0.1457806080579758 0.7039999961853027 4284501882
-0.1003061234951019 -0.1457806080579758 0.7039999961853027 4284110223
-0.09888282418251038 -0.1455735415220261 0.703000009059906 4284043911
-0.09732431918382645 -0.1451593786478043 0.7009999752044678 4283912064
-0.09591012448072433 -0.1449523121118546 0.699999988079071 4283648882
-0.09436438232660294 -0.1445381641387939 0.6980000138282776 4282991201
-0.0930926725268364 -0.1445381641387939 0.6980000138282776 4282726485
-0.09182095527648926 -0.1445381641387939 0.6980000138282776 4283119956
-0.09041951596736908 -0.1443310976028442 0.6970000267028809 4283187800
-0.1176700219511986 -0.1469600349664688 0.7160000205039978 4285814373
-0.1163654997944832 -0.1469600349664688 0.7160000205039978 4285223012
-0.115221694111824 -0.1471652835607529 0.7170000076293945 4284960614
-0.1031636595726013 -0.1449075192213058 0.7059999704360962 4286666878
-0.1018773764371872 -0.1449075192213058 0.7059999704360962 4284962180
-0.1003061234951019 -0.1444970220327377 0.7039999961853027 4284307855
-0.0990234836935997 -0.1444970220327377 0.7039999961853027 4284176005
-0.09774082899093628 -0.1444970220327377 0.7039999961853027 4284043902
-0.09632117301225662 -0.1442917734384537 0.703000009059906 4283780468
-0.09476996213197708 -0.1438812613487244 0.7009999752044678 4283254121
-0.09335941076278687 -0.1436760127544403 0.699999988079071 4282858332
-0.09182095527648926 -0.1432655155658722 0.6980000138282776 4282594386
-0.09054923802614212 -0.1432655155658722 0.6980000138282776 4281871689
-0.1165280267596245 -0.1458579897880554 0.7170000076293945 4285025888
-0.115221694111824 -0.1458579897880554 0.7170000076293945 4284631645
-0.110456608235836 -0.1464682966470718 0.7200000286102295 4291517830
-0.1091448068618774 -0.1464682966470718 0.7200000286102295 4292704396
-0.1078330054879189 -0.1464682966470718 0.7200000286102295 4292245373
-0.1045979112386703 -0.1438237279653549 0.7070000171661377 4289293460
-0.1033097952604294 -0.1438237279653549 0.7070000171661377 4286404504
-0.1018773764371872 -0.1436202824115753 0.7059999704360962 4284830860
-0.1005910858511925 -0.1436202824115753 0.7059999704360962 4284308108
-0.09930478781461716 -0.1436202824115753 0.7059999704360962 4284438917
-0.09774082899093628 -0.1432134211063385 0.7039999961853027 4284241277
-0.09645818918943405 -0.1432134211063385 0.7039999961853027 4283912311
-0.09504035115242004 -0.1430100053548813 0.703000009059906 4283451759
-0.0934927761554718 -0.1426031440496445 0.7009999752044678 4282661719
-0.09221559762954712 -0.1426031440496445 0.7009999752044678 4280885557
-0.0908086895942688 -0.1423997133970261 0.699999988079071 4279373083
-0.08927752077579498 -0.1419928669929504 0.6980000138282776 4279110418
-0.1155430898070335 -0.1449539065361023 0.718999981880188 4284105806
-0.1143919974565506 -0.1451555341482162 0.7200000286102295 4284956237
-0.113080196082592 -0.1451555341482162 0.7200000286102295 4286269273
-0.1120788604021072 -0.1455587446689606 0.7220000028610229 4289481322
-0.1103031784296036 -0.1449539065361023 0.718999981880188 4292961164
-0.1086900308728218 -0.1445507109165192 0.7170000076293945 4293096320
-0.1072339341044426 -0.1443491131067276 0.7160000205039978 4293164409
-0.1054855808615685 -0.1437442898750305 0.7129999995231628 4291135397
-0.1033097952604294 -0.1425346583127975 0.7070000171661377 4287458466
-0.1020216792821884 -0.1425346583127975 0.7070000171661377 4284962955
-0.1005910858511925 -0.1423330456018448 0.7059999704360962 4284308618
-0.09930478781461716 -0.1423330456018448 0.7059999704360962 4284439431
-0.09801850467920303 -0.1423330456018448 0.7059999704360962 4284306817
-0.09673220664262772 -0.1423330456018448 0.7059999704360962 4284043645
-0.09517553448677063 -0.1419298499822617 0.7039999961853027 4282990702
-0.09375952184200287 -0.1417282372713089 0.703000009059906 4281410104
-0.09221559762954712 -0.1413250267505646 0.7009999752044678 4279765005
-0.09093841165304184 -0.1413250267505646 0.7009999752044678 4279435295
-0.08953332901000977 -0.1411234140396118 0.699999988079071 4285358200
-0.1143919974565506 -0.1438427716493607 0.7200000286102295 4286462288
-0.113080196082592 -0.1438427716493607 0.7200000286102295 4290008441
-0.1117683947086334 -0.1438427716493607 0.7200000286102295 4292566912
-0.1103031784296036 -0.1436429768800735 0.718999981880188 4293088884
-0.1086900308728218 -0.1432434171438217 0.7170000076293945 4292038750
-0.1072339341044426 -0.1430436372756958 0.7160000205039978 4293553521
-0.1054855808615685 -0.1424442827701569 0.7129999995231628 4292187578
-0.1034559160470963 -0.1414453834295273 0.7080000042915344 4287854513
-0.1021659821271896 -0.1414453834295273 0.7080000042915344 4284963468
-0.100733570754528 -0.1412456035614014 0.7070000171661377 4284439945
-0.09930478781461716 -0.1410458087921143 0.7059999704360962 4284439430
-0.09801850467920303 -0.1410458087921143 0.7059999704360962 4284175487
-0.09673220664262772 -0.1410458087921143 0.7059999704360962 4283582834
-0.09517553448677063 -0.1406462639570236 0.7039999961853027 4281017669
-0.0938928946852684 -0.1406462639570236 0.7039999961853027 4279437073
-0.09247869253158569 -0.1404464691877365 0.703000009059906 4281276182
-0.09093841165304184 -0.1400469094514847 0.7009999752044678 4284893008
-0.08966123312711716 -0.1400469094514847 0.7009999752044678 4291279040
-0.1147097423672676 -0.1429259181022644 0.7220000028610229 4288894824
-0.1133943051099777 -0.1429259181022644 0.7220000028610229 4291389570
-0.1117683947086334 -0.1425300091505051 0.7200000286102295 4292566394
-0.1103031784296036 -0.1423320472240448 0.718999981880188 4292100962
-0.1086900308728218 -0.1419361233711243 0.7170000076293945 4290985569
-0.1072339341044426 -0.1417381763458252 0.7160000205039978 4293355918
-0.1054855808615685 -0.1411442905664444 0.7129999995231628 4292450764
-0.1037481650710106 -0.1405504196882248 0.7099999785423279 4287196842
-0.1024545878171921 -0.1405504196882248 0.7099999785423279 4284173952
-0.100733570754528 -0.1399565488100052 0.7070000171661377 4283979392
-0.09944545477628708 -0.1399565488100052 0.7070000171661377 4283978623
-0.09801850467920303 -0.1397585868835449 0.7059999704360962 4282399079
-0.09673220664262772 -0.1397585868835449 0.7059999704360962 4281540165
-0.095445916056633 -0.1397585868835449 0.7059999704360962 4282984011
-0.09415963292121887 -0.1397585868835449 0.7059999704360962 4287264322
-0.09261024743318558 -0.1393626630306244 0.7039999961853027 4290622286
-0.09132759273052216 -0.1393626630306244 0.7039999961853027 4292398498
-0.113080196082592 -0.1412172466516495 0.7200000286102295 4291063173
-0.1117683947086334 -0.1412172466516495 0.7200000286102295 4291187567
-0.1103031784296036 -0.1410211026668549 0.718999981880188 4291249507
-0.1086900308728218 -0.140628844499588 0.7170000076293945 4291318906
-0.1072339341044426 -0.1404327005147934 0.7160000205039978 4293295526
-0.1056335270404816 -0.1400404274463654 0.7139999866485596 4292385989
-0.1038942858576775 -0.1394520252943039 0.7110000252723694 4287195281
-0.1024545878171921 -0.1392558962106705 0.7099999785423279 4283975280
-0.100876048207283 -0.1388636231422424 0.7080000042915344 4283714164
-0.0995861142873764 -0.1388636231422424 0.7080000042915344 4282596198
-0.09815734624862671 -0.138667494058609 0.7070000171661377 4280227908
-0.09686923027038574 -0.138667494058609 0.7070000171661377 4281534282
-0.095445916056633 -0.1384713500738144 0.7059999704360962 4288501154
-0.09415963292121887 -0.1384713500738144 0.7059999704360962 4293840841
-0.09287333488464355 -0.1384713500738144 0.7059999704360962 4294966986
-0.1117683947086334 -0.1399044990539551 0.7200000286102295 4289811310
-0.1103031784296036 -0.1397101581096649 0.718999981880188 4290008177
-0.1086900308728218 -0.1393215507268906 0.7170000076293945 4290011013
-0.1072339341044426 -0.1391272395849228 0.7160000205039978 4290275988
-0.1056335270404816 -0.1387386173009872 0.7139999866485596 4288573065
-0.1041865348815918 -0.1385442912578583 0.7129999995231628 4285353568
-0.1025988906621933 -0.1381556838750839 0.7110000252723694 4283446874
-0.101161003112793 -0.137961357831955 0.7099999785423279 4281541196
-0.09986742585897446 -0.137961357831955 0.7099999785423279 4282064448
-0.09829617291688919 -0.1375727504491806 0.7080000042915344 4286735748
-0.09686923027038574 -0.1373784244060516 0.7070000171661377 4290486724
-0.095445916056633 -0.1371841132640839 0.7059999704360962 4293446892
-0.1103031784296036 -0.1383992284536362 0.718999981880188 4287322223
-0.1086900308728218 -0.1380142718553543 0.7170000076293945 4286863223
-0.1072339341044426 -0.1378217786550522 0.7160000205039978 4285087845
-0.1056335270404816 -0.1374367922544479 0.7139999866485596 4283246910
-0.1043326556682587 -0.1374367922544479 0.7139999866485596 4282260521
-0.1025988906621933 -0.1368593275547028 0.7110000252723694 4281932327
-0.1013034954667091 -0.1368593275547028 0.7110000252723694 4282196782
-0.09986742585897446 -0.1366668343544006 0.7099999785423279 4285349967
-0.09857384860515594 -0.1366668343544006 0.7099999785423279 4291999426
-0.1086900308728218 -0.1367069631814957 0.7170000076293945 4284893015
-0.1073836982250214 -0.1367069631814957 0.7170000076293945 4281344300
-0.1059294193983078 -0.1365163177251816 0.7160000205039978 4279436814
-0.1043326556682587 -0.1361349672079086 0.7139999866485596 4280750619
-0.103031799197197 -0.1361349672079086 0.7139999866485596 4285618752
-0.1013034954667091 -0.1355629861354828 0.7110000252723694 4290029183
-0.1089932098984718 -0.1357773542404175 0.718999981880188 4284166471
-0.1073836982250214 -0.1353996694087982 0.7170000076293945 4280290582
-0.1059294193983078 -0.1352108418941498 0.7160000205039978 4278976542
-0.1073836982250214 -0.134092390537262 0.7170000076293945 4288045459
-0.083503358066082 -0.1611205637454987 0.6819999814033508 4294967295
-0.08226079493761063 -0.1611205637454987 0.6819999814033508 4294967295
-0.06668905168771744 -0.1625380516052246 0.6880000233650208 4294567134
-0.06543555855751038 -0.1625380516052246 0.6880000233650208 4293252045
-0.06418206542730331 -0.1625380516052246 0.6880000233650208 4290093988
-0.08226079493761063 -0.1598770767450333 0.6819999814033508 4294967295
-0.0679425448179245 -0.1612836420536041 0.6880000233650208 4291537579
-0.06668905168771744 -0.1612836420536041 0.6880000233650208 4289563528
-0.06543555855751038 -0.1612836420536041 0.6880000233650208 4290023816
-0.06418206542730331 -0.1612836420536041 0.6880000233650208 4289499274
-0.08226079493761063 -0.1586336046457291 0.6819999814033508 4294967295
-0.08101822435855865 -0.1586336046457291 0.6819999814033508 4294967295
-0.07954172044992447 -0.1581684201955795 0.6800000071525574 4294967295
-0.07830279320478439 -0.1581684201955795 0.6800000071525574 4294967295
-0.07706387341022491 -0.1581684201955795 0.6800000071525574 4294967295
-0.074533611536026 -0.1607270091772079 0.6909999847412109 4294967284
-0.0732746496796608 -0.1607270091772079 0.6909999847412109 4292795610
-0.07222412526607513 -0.1611922234296799 0.6930000185966492 4290030006
-0.07096152752637863 -0.1611922234296799 0.6930000185966492 4291145940
-0.06939718872308731 -0.1604944169521332 0.6899999976158142 4292132305
-0.0679425448179245 -0.1600292176008224 0.6880000233650208 4288118655
-0.06668905168771744 -0.1600292176008224 0.6880000233650208 4284628784
-0.06543555855751038 -0.1600292176008224 0.6880000233650208 4287059762
-0.06418206542730331 -0.1600292176008224 0.6880000233650208 4289297250
-0.09076856821775436 -0.1592363566160202 0.6899999976158142 4286735960
-0.08674498647451401 -0.158774808049202 0.6880000233650208 4286540436
-0.08536721765995026 -0.1585440188646317 0.6869999766349792 4291603662
-0.0837482362985611 -0.1578516960144043 0.6840000152587891 4294434297
-0.08226079493761063 -0.1573901325464249 0.6819999814033508 4293843449
-0.08101822435855865 -0.1573901325464249 0.6819999814033508 4293186794
-0.07954172044992447 -0.1569285839796066 0.6800000071525574 4293253860
-0.07830279320478439 -0.1569285839796066 0.6800000071525574 4293582819
-0.07729053497314453 -0.1573901325464249 0.6819999814033508 4293779935
-0.07615947723388672 -0.1576209217309952 0.6830000281333923 4294368733
-0.07502477616071701 -0.1578516960144043 0.6840000152587891 4294962155
-0.074533611536026 -0.1594671308994293 0.6909999847412109 4294967287
-0.0732746496796608 -0.1594671308994293 0.6909999847412109 4294440935
-0.07201568782329559 -0.1594671308994293 0.6909999847412109 4293650662
-0.07075672596693039 -0.1594671308994293 0.6909999847412109 4290755269
-0.06939718872308731 -0.1592363566160202 0.6899999976158142 4286277760
-0.06814005225896835 -0.1592363566160202 0.6899999976158142 4283116372
-0.0668829157948494 -0.1592363566160202 0.6899999976158142 4281537059
-0.06562577188014984 -0.1592363566160202 0.6899999976158142 4284166189
-0.06436863541603088 -0.1592363566160202 0.6899999976158142 4287060322
-0.09215907007455826 -0.1582072526216507 0.6909999847412109 4284433751
-0.09076856821775436 -0.1579782962799072 0.6899999976158142 4285752177
-0.08951142430305481 -0.1579782962799072 0.6899999976158142 4286477200
-0.08799847960472107 -0.1575203984975815 0.6880000233650208 4283912573
-0.08674498647451401 -0.1575203984975815 0.6880000233650208 4284764547
-0.08536721765995026 -0.1572914272546768 0.6869999766349792 4290353606
-0.0837482362985611 -0.1566045880317688 0.6840000152587891 4293118704
-0.08238141238689423 -0.1563756316900253 0.6830000281333923 4292067818
-0.0811370313167572 -0.1563756316900253 0.6830000281333923 4291212760
-0.07977566123008728 -0.1561466604471207 0.6819999814033508 4291015628
-0.07853309810161591 -0.1561466604471207 0.6819999814033508 4290883520
-0.07729053497314453 -0.1561466604471207 0.6819999814033508 4290882483
-0.07615947723388672 -0.1563756316900253 0.6830000281333923 4292720319
-0.07491509616374969 -0.1563756316900253 0.6830000281333923 4294958820
-0.07399429380893707 -0.1570624709129333 0.6859999895095825 4294966522
-0.07285048067569733 -0.1572914272546768 0.6869999766349792 4294967286
-0.07159880548715591 -0.1572914272546768 0.6869999766349792 4294967291
-0.07044953852891922 -0.1575203984975815 0.6880000233650208 4289835184
-0.06949776411056519 -0.1582072526216507 0.6909999847412109 4281543222
-0.06814005225896835 -0.1579782962799072 0.6899999976158142 4279830306
-0.06668905168771744 -0.1575203984975815 0.6880000233650208 4280487197
-0.06543555855751038 -0.1575203984975815 0.6880000233650208 4281539092
-0.09368842095136642 -0.1574016213417053 0.6930000185966492 4289170568
-0.09215907007455826 -0.1569473594427109 0.6909999847412109 4284698970
-0.09090011566877365 -0.1569473594427109 0.6909999847412109 4284832882
-0.08951142430305481 -0.1567202359437943 0.6899999976158142 4285096831
-0.08799847960472107 -0.156265988945961 0.6880000233650208 4283781747
-0.08674498647451401 -0.156265988945961 0.6880000233650208 4284043116
-0.08536721765995026 -0.156038835644722 0.6869999766349792 4286212226
-0.0837482362985611 -0.1553574502468109 0.6840000152587891 4287461541
-0.08250202238559723 -0.1553574502468109 0.6840000152587891 4288513221
-0.0811370313167572 -0.1551303267478943 0.6830000281333923 4289238479
-0.07977566123008728 -0.1549031883478165 0.6819999814033508 4288647620
-0.07853309810161591 -0.1549031883478165 0.6819999814033508 4287725739
-0.07729053497314453 -0.1549031883478165 0.6819999814033508 4286803856
-0.07615947723388672 -0.1551303267478943 0.6830000281333923 4288509075
-0.07491509616374969 -0.1551303267478943 0.6830000281333923 4292190395
-0.07377856969833374 -0.1553574502468109 0.6840000152587891 4293114581
-0.07274444401264191 -0.1558117121458054 0.6859999895095825 4292456651
-0.07149459421634674 -0.1558117121458054 0.6859999895095825 4291406018
-0.07044953852891922 -0.156265988945961 0.6880000233650208 4286605443
-0.06939718872308731 -0.1567202359437943 0.6899999976158142 4281606201
-0.0679425448179245 -0.156265988945961 0.6880000233650208 4281475129
-0.06668905168771744 -0.156265988945961 0.6880000233650208 4281406755
-0.06543555855751038 -0.156265988945961 0.6880000233650208 4281206531
-0.06418206542730331 -0.156265988945961 0.6880000233650208 4284298783
-0.09536206722259521 -0.1568140238523483 0.6959999799728394 4289699750
-0.09368842095136642 -0.1561381071805954 0.6930000185966492 4286412660
-0.09242581576108932 -0.1561381071805954 0.6930000185966492 4284110434
-0.09090011566877365 -0.1556874811649323 0.6909999847412109 4283913329
-0.08951142430305481 -0.1554621607065201 0.6899999976158142 4284175989
-0.08825428783893585 -0.1554621607065201 0.6899999976158142 4283912305
-0.08674498647451401 -0.1550115644931793 0.6880000233650208 4283714410
-0.08536721765995026 -0.1547862440347672 0.6869999766349792 4283450978
-0.08399311453104019 -0.1545609533786774 0.6859999895095825 4283120999
-0.08250202238559723 -0.1541103273630142 0.6840000152587891 4284172417
-0.08125582337379456 -0.1541103273630142 0.6840000152587891 4285620376
-0.07989263534545898 -0.1538850218057632 0.6830000281333923 4285884063
-0.07864825427532196 -0.1538850218057632 0.6830000281333923 4285226905
-0.07740386575460434 -0.1538850218057632 0.6830000281333923 4284635796
-0.07615947723388672 -0.1538850218057632 0.6830000281333923 4285554060
-0.07491509616374969 -0.1538850218057632 0.6830000281333923 4287261839
-0.07367070764303207 -0.1538850218057632 0.6830000281333923 4287786901
-0.07242631912231445 -0.1538850218057632 0.6830000281333923 4286535809
-0.07118193805217743 -0.1538850218057632 0.6830000281333923 4285286771
-0.0703471377491951 -0.1547862440347672 0.6869999766349792 4283840097
-0.06899488717317581 -0.1545609533786774 0.6859999895095825 4282458178
-0.06774503737688065 -0.1545609533786774 0.6859999895095825 4281997617
-0.06659211218357086 -0.1547862440347672 0.6869999766349792 4282058793
-0.06543555855751038 -0.1550115644931793 0.6880000233650208 4284354369
-0.06418206542730331 -0.1550115644931793 0.6880000233650208 4289030523
-0.09536206722259521 -0.1555450111627579 0.6959999799728394 4284569963
-0.09368842095136642 -0.1548745781183243 0.6930000185966492 4283651184
-0.09242581576108932 -0.1548745781183243 0.6930000185966492 4283716464
-0.09090011566877365 -0.1544275879859924 0.6909999847412109 4284044403
-0.08964114636182785 -0.1544275879859924 0.6909999847412109 4284175478
-0.08825428783893585 -0.1542041152715683 0.6899999976158142 4283912052
-0.08674498647451401 -0.1537571400403976 0.6880000233650208 4283780211
-0.08536721765995026 -0.1535336524248123 0.6869999766349792 4283714933
-0.08399311453104019 -0.153310164809227 0.6859999895095825 4283451758
-0.08250202238559723 -0.1528632193803787 0.6840000152587891 4283254632
-0.08125582337379456 -0.1528632193803787 0.6840000152587891 4283648625
-0.08000960946083069 -0.1528632193803787 0.6840000152587891 4284437889
-0.07864825427532196 -0.1526397317647934 0.6830000281333923 4285293722
-0.07740386575460434 -0.1526397317647934 0.6830000281333923 4286149810
-0.07615947723388672 -0.1526397317647934 0.6830000281333923 4286214571
-0.07491509616374969 -0.1526397317647934 0.6830000281333923 4285160850
-0.07367070764303207 -0.1526397317647934 0.6830000281333923 4284436860
-0.07242631912231445 -0.1526397317647934 0.6830000281333923 4283976038
-0.07118193805217743 -0.1526397317647934 0.6830000281333923 4283383134
-0.07003994286060333 -0.1528632193803787 0.6840000152587891 4281541440
-0.06899488717317581 -0.153310164809227 0.6859999895095825 4280749081
-0.06774503737688065 -0.153310164809227 0.6859999895095825 4285347131
-0.06659211218357086 -0.1535336524248123 0.6869999766349792 4290217618
-0.06534043699502945 -0.1535336524248123 0.6869999766349792 4291866564
-0.06408876180648804 -0.1535336524248123 0.6869999766349792 4293711840
-0.09663014113903046 -0.1542760133743286 0.6959999799728394 4285619301
-0.09508804231882095 -0.1538326889276505 0.6940000057220459 4282265930
-0.09368842095136642 -0.153611034154892 0.6930000185966492 4282860137
-0.09242581576108932 -0.153611034154892 0.6930000185966492 4283846515
-0.09090011566877365 -0.1531677097082138 0.6909999847412109 4284175219
-0.08964114636182785 -0.1531677097082138 0.6909999847412109 4284306809
-0.08825428783893585 -0.1529460549354553 0.6899999976158142 4284109177
-0.0869971439242363 -0.1529460549354553 0.6899999976158142 4283780215
-0.08549148589372635 -0.1525027304887772 0.6880000233650208 4283846266
-0.08411554247140884 -0.1522810608148575 0.6869999766349792 4284174968
-0.08274325728416443 -0.152059406042099 0.6859999895095825 4284240754
-0.08149340748786926 -0.152059406042099 0.6859999895095825 4284043118
-0.08000960946083069 -0.151616096496582 0.6840000152587891 4284569462
-0.07864825427532196 -0.1513944268226624 0.6830000281333923 4286082711
-0.07740386575460434 -0.1513944268226624 0.6830000281333923 4287069616
-0.07615947723388672 -0.1513944268226624 0.6830000281333923 4286411942
-0.07491509616374969 -0.1513944268226624 0.6830000281333923 4284899217
-0.07367070764303207 -0.1513944268226624 0.6830000281333923 4284109434
-0.07242631912231445 -0.1513944268226624 0.6830000281333923 4283451491
-0.07118193805217743 -0.1513944268226624 0.6830000281333923 4282200643
-0.07003994286060333 -0.151616096496582 0.6840000152587891 4280161046
-0.06899488717317581 -0.152059406042099 0.6859999895095825 4281928204
-0.06774503737688065 -0.152059406042099 0.6859999895095825 4289421926
-0.06649518758058548 -0.152059406042099 0.6859999895095825 4294828514
-0.06524533033370972 -0.152059406042099 0.6859999895095825 4294967293
-0.09945124387741089 -0.153446689248085 0.6980000138282776 4288907691
-0.09803887456655502 -0.1532268673181534 0.6970000267028809 4286408834
-0.09663014113903046 -0.1530070006847382 0.6959999799728394 4283909723
-0.09508804231882095 -0.1525673419237137 0.6940000057220459 4282660955
-0.09382361173629761 -0.1525673419237137 0.6940000057220459 4283319668
-0.09242581576108932 -0.1523475050926208 0.6930000185966492 4283780470
-0.09116321057081223 -0.1523475050926208 0.6930000185966492 4283977844
-0.08964114636182785 -0.1519078314304352 0.6909999847412109 4284240510
-0.08838219195604324 -0.1519078314304352 0.6909999847412109 4284305794
-0.0869971439242363 -0.1516879796981812 0.6899999976158142 4283977084
-0.08549148589372635 -0.1512483209371567 0.6880000233650208 4283714422
-0.08423799276351929 -0.1512483209371567 0.6880000233650208 4283911539
-0.08286386728286743 -0.1510284692049026 0.6869999766349792 4284306548
-0.08161219954490662 -0.1510284692049026 0.6869999766349792 4284503669
-0.0802435502409935 -0.1508086323738098 0.6859999895095825 4284700534
-0.07864825427532196 -0.1501491367816925 0.6830000281333923 4285226882
-0.07740386575460434 -0.1501491367816925 0.6830000281333923 4285490058
-0.07615947723388672 -0.1501491367816925 0.6830000281333923 4285030022
-0.07491509616374969 -0.1501491367816925 0.6830000281333923 4284306813
-0.07367070764303207 -0.1501491367816925 0.6830000281333923 4283450219
-0.07242631912231445 -0.1501491367816925 0.6830000281333923 4281869901
-0.07118193805217743 -0.1501491367816925 0.6830000281333923 4282002237
-0.07003994286060333 -0.1503689587116241 0.6840000152587891 4286411889
-0.06899488717317581 -0.1508086323738098 0.6859999895095825 4290817453
-0.06774503737688065 -0.1508086323738098 0.6859999895095825 4293645526
-0.1010115593671799 -0.1526100635528564 0.699999988079071 4291995336
-0.09945124387741089 -0.1521740406751633 0.6980000138282776 4288249756
-0.09803887456655502 -0.1519560366868973 0.6970000267028809 4284962417
-0.09663014113903046 -0.1517380028963089 0.6959999799728394 4283319646
-0.09508804231882095 -0.1513019800186157 0.6940000057220459 4282990947
-0.09382361173629761 -0.1513019800186157 0.6940000057220459 4283385713
-0.09242581576108932 -0.1510839760303497 0.6930000185966492 4283648882
-0.09116321057081223 -0.1510839760303497 0.6930000185966492 4283912053
-0.08990060538053513 -0.1510839760303497 0.6930000185966492 4284174973
-0.08838219195604324 -0.1506479382514954 0.6909999847412109 4284306305
-0.0869971439242363 -0.1504299342632294 0.6899999976158142 4284174717
-0.08574000746011734 -0.1504299342632294 0.6899999976158142 4283648627
-0.08423799276351929 -0.1499939113855362 0.6880000233650208 4283385962
-0.08298449963331223 -0.1499939113855362 0.6880000233650208 4283847020
-0.08173099905252457 -0.1499939113855362 0.6880000233650208 4284503925
-0.0803605243563652 -0.1497758775949478 0.6869999766349792 4284700535
-0.07899370789527893 -0.1495578736066818 0.6859999895095825 4284766330
-0.07751719653606415 -0.1491218507289886 0.6840000152587891 4284634745
-0.07627099007368088 -0.1491218507289886 0.6840000152587891 4284042865
-0.07491509616374969 -0.1489038318395615 0.6830000281333923 4282200920
-0.07367070764303207 -0.1489038318395615 0.6830000281333923 4280948016
-0.07242631912231445 -0.1489038318395615 0.6830000281333923 4281668126
-0.07118193805217743 -0.1489038318395615 0.6830000281333923 4285550158
-0.06993754953145981 -0.1489038318395615 0.6830000281333923 4292133823
-0.06869316846132278 -0.1489038318395615 0.6830000281333923 4294967295
-0.1010115593671799 -0.1513337790966034 0.699999988079071 4292456654
-0.09945124387741089 -0.1509014070034027 0.6980000138282776 4288447647
-0.09803887456655502 -0.1506852060556412 0.6970000267028809 4284897148
-0.09663014113903046 -0.1504690051078796 0.6959999799728394 4283254131
-0.09382361173629761 -0.150036633014679 0.6940000057220459 4283319655
-0.09242581576108932 -0.1498204469680786 0.6930000185966492 4283517292
-0.09116321057081223 -0.1498204469680786 0.6930000185966492 4283846770
-0.08990060538053513 -0.1498204469680786 0.6930000185966492 4284175479
-0.08838219195604324 -0.1493880450725555 0.6909999847412109 4284241016
-0.08712322264909744 -0.1493880450725555 0.6909999847412109 4284174712
-0.08586426824331284 -0.1493880450725555 0.6909999847412109 4283779443
-0.08448287099599838 -0.1491718590259552 0.6899999976158142 4283188324
-0.08322572708129883 -0.1491718590259552 0.6899999976158142 4283583330
-0.08196858316659927 -0.1491718590259552 0.6899999976158142 4284241008
-0.0804775059223175 -0.1487394869327545 0.6880000233650208 4284832892
-0.07922400534152985 -0.1487394869327545 0.6880000233650208 4284898685
-0.07774385064840317 -0.1483070999383926 0.6859999895095825 4283319652
-0.07627099007368088 -0.147874727845192 0.6840000152587891 4282065989
-0.07502477616071701 -0.147874727845192 0.6840000152587891 4283771475
-0.07367070764303207 -0.1476585268974304 0.6830000281333923 4287590238
-0.07242631912231445 -0.1476585268974304 0.6830000281333923 4290884702
-0.07118193805217743 -0.1476585268974304 0.6830000281333923 4292529569
-0.06993754953145981 -0.1476585268974304 0.6830000281333923 4294373614
-0.06869316846132278 -0.1476585268974304 0.6830000281333923 4294967295
-0.1010115593671799 -0.1500574797391891 0.699999988079071 4291866578
-0.09536206722259521 -0.1492000073194504 0.6959999799728394 4282924645
-0.09255918115377426 -0.148771271109581 0.6940000057220459 4283451239
-0.09116321057081223 -0.1485569179058075 0.6930000185966492 4283780973
-0.08990060538053513 -0.1485569179058075 0.6930000185966492 4284175475
-0.08863800764083862 -0.1485569179058075 0.6930000185966492 4284109683
-0.08712322264909744 -0.1481281816959381 0.6909999847412109 4284174454
-0.08586426824331284 -0.1481281816959381 0.6909999847412109 4283910515
-0.08460529893636703 -0.1481281816959381 0.6909999847412109 4283449702
-0.08322572708129883 -0.1479137986898422 0.6899999976158142 4283910247
-0.08196858316659927 -0.1479137986898422 0.6899999976158142 4284503158
-0.08071144670248032 -0.1479137986898422 0.6899999976158142 4284569981
-0.07922400534152985 -0.147485077381134 0.6880000233650208 4284175473
-0.07785718142986298 -0.1472707092761993 0.6869999766349792 4282004810
-0.076494000852108 -0.1470563262701035 0.6859999895095825 4282323008
-0.07524414360523224 -0.1470563262701035 0.6859999895095825 4288499348
-0.07377856969833374 -0.1466276049613953 0.6840000152587891 4293971417
-0.07242631912231445 -0.1464132368564606 0.6830000281333923 4294967256
-0.07118193805217743 -0.1464132368564606 0.6830000281333923 4294967277
-0.06993754953145981 -0.1464132368564606 0.6830000281333923 4294967295
-0.06869316846132278 -0.1464132368564606 0.6830000281333923 4294967295
-0.1040061265230179 -0.1494188159704208 0.703000009059906 4293574106
-0.1027252972126007 -0.1494188159704208 0.703000009059906 4291010755
-0.1011558622121811 -0.1489937305450439 0.7009999752044678 4287787945
-0.09973620623350143 -0.1487811952829361 0.699999988079071 4285486489
-0.09817953407764435 -0.148356094956398 0.6980000138282776 4284173434
-0.09676898270845413 -0.1481435596942902 0.6970000267028809 4283254628
-0.09536206722259521 -0.1479310095310211 0.6959999799728394 4282925408
-0.09255918115377426 -0.1475059241056442 0.6940000057220459 4283319908
-0.09129475802183151 -0.1475059241056442 0.6940000057220459 4283583334
-0.09003033488988876 -0.1475059241056442 0.6940000057220459 4283846766
-0.08863800764083862 -0.1472933739423752 0.6930000185966492 4284175735
-0.08737539499998093 -0.1472933739423752 0.6930000185966492 4284438395
-0.08611278980970383 -0.1472933739423752 0.6930000185966492 4284108917
-0.08485018461942673 -0.1472933739423752 0.6930000185966492 4283845488
-0.08334634453058243 -0.1468682885169983 0.6909999847412109 4285029250
-0.08208737522363663 -0.1468682885169983 0.6909999847412109 4285621901
-0.08082842081785202 -0.1468682885169983 0.6909999847412109 4283187819
-0.07956945896148682 -0.1468682885169983 0.6909999847412109 4282462284
-0.07797051221132278 -0.1462306529283524 0.6880000233650208 4286870658
-0.07671701163053513 -0.1462306529283524 0.6880000233650208 4291211974
-0.07535383105278015 -0.1460181027650833 0.6869999766349792 4293512679
-0.07377856969833374 -0.1453804820775986 0.6840000152587891 4294964479
-0.07253236323595047 -0.1453804820775986 0.6840000152587891 4294967295
-0.07118193805217743 -0.1451679319143295 0.6830000281333923 4294967295
-0.06993754953145981 -0.1451679319143295 0.6830000281333923 4294967295
-0.06869316846132278 -0.1451679319143295 0.6830000281333923 4294967295
-0.1040061265230179 -0.1481370627880096 0.703000009059906 4292262348
-0.1027252972126007 -0.1481370627880096 0.703000009059906 4287989146
-0.1014444679021835 -0.1481370627880096 0.703000009059906 4283843705
-0.09987868368625641 -0.1477156132459641 0.7009999752044678 4283514508
-0.09409399330615997 -0.1466620117425919 0.6959999799728394 4283319142
-0.09282592684030533 -0.1466620117425919 0.6959999799728394 4283253343
-0.09155785292387009 -0.1466620117425919 0.6959999799728394 4283450974
-0.09003033488988876 -0.1462405771017075 0.6940000057220459 4283648613
-0.08876590430736542 -0.1462405771017075 0.6940000057220459 4284109937
-0.08737539499998093 -0.1460298448801041 0.6930000185966492 4284570749
-0.08611278980970383 -0.1460298448801041 0.6930000185966492 4284176251
-0.08497262746095657 -0.1462405771017075 0.6940000057220459 4283781237
-0.08358757942914963 -0.1460298448801041 0.6930000185966492 4284504447
-0.08232497423887253 -0.1460298448801041 0.6930000185966492 4284964475
-0.08106236904859543 -0.1460298448801041 0.6930000185966492 4283648093
-0.07979976385831833 -0.1460298448801041 0.6930000185966492 4284762714
-0.07831049710512161 -0.1456083953380585 0.6909999847412109 4291014068
-0.07705153524875641 -0.1456083953380585 0.6909999847412109 4294967039
-0.07546351850032806 -0.1449762433767319 0.6880000233650208 4294967295
-0.07410215586423874 -0.1447655260562897 0.6869999766349792 4294967295
-0.07285048067569733 -0.1447655260562897 0.6869999766349792 4294967295
-0.0712861567735672 -0.1441333591938019 0.6840000152587891 4294967295
