# .PCD v0.7 - Point Cloud Data file format
VERSION 0.7
FIELDS x y z rgba
SIZE 4 4 4 4
TYPE F F F U
COUNT 1 1 1 1
WIDTH 669
HEIGHT 1
VIEWPOINT 0 0 0 1 0 0 0
POINTS 669
DATA ascii
-0.06989675760269165 -0.04933002591133118 0.6069999933242798 4291208372
-0.06879084557294846 -0.04933002591133118 0.6069999933242798 4291077043
-0.06768491864204407 -0.04933002591133118 0.6069999933242798 4291142329
-0.06657900661230087 -0.04933002591133118 0.6069999933242798 4291339454
-0.06547308713197708 -0.04933002591133118 0.6069999933242798 4291274169
-0.06436716765165329 -0.04933002591133118 0.6069999933242798 4291143095
-0.06336546689271927 -0.04941129684448242 0.6079999804496765 4291012017
-0.06215532869100571 -0.04933002591133118 0.6069999933242798 4291012015
-0.06104941293597221 -0.04933002591133118 0.6069999933242798 4291077046
-0.06004224345088005 -0.04941129684448242 0.6079999804496765 4291011257
-0.05893450602889061 -0.04941129684448242 0.6079999804496765 4290945466
-0.05782676488161087 -0.04941129684448242 0.6079999804496765 4290879931
-0.05662573873996735 -0.04933002591133118 0.6069999933242798 4290748604
-0.05551981925964355 -0.04933002591133118 0.6069999933242798 4290880447
-0.04698003455996513 -0.04965510219335556 0.6110000014305115 4290092220
-0.04586682841181755 -0.04965510219335556 0.6110000014305115 4290026429
-0.04475362226366997 -0.04965510219335556 0.6110000014305115 4290289860
-0.04356899484992027 -0.04957383498549461 0.6100000143051147 4290684355
-0.04245760664343834 -0.04957383498549461 0.6100000143051147 4290618814
-0.04141400381922722 -0.04965510219335556 0.6110000014305115 4290486974
-0.04023484140634537 -0.04957383498549461 0.6100000143051147 4290618049
-0.03912345692515373 -0.04957383498549461 0.6100000143051147 4290618305
-0.0380120687186718 -0.04957383498549461 0.6100000143051147 4290486462
-0.03708216175436974 -0.04981764033436775 0.6129999756813049 4290420413
-0.0358479730784893 -0.04965510219335556 0.6110000014305115 4290420413
-0.03473476693034172 -0.04965510219335556 0.6110000014305115 4290551223
-0.03362156078219414 -0.04965510219335556 0.6110000014305115 4290813618
-0.03250835463404655 -0.04965510219335556 0.6110000014305115 4291010745
-0.03134376555681229 -0.04957383498549461 0.6100000143051147 4291405252
-0.0302323792129755 -0.04957383498549461 0.6100000143051147 4291800783
-0.02912099473178387 -0.04957383498549461 0.6100000143051147 4291802326
-0.02800961211323738 -0.04957383498549461 0.6100000143051147 4292065504
-0.02689822763204575 -0.04957383498549461 0.6100000143051147 4291275996
-0.02578684315085411 -0.04957383498549461 0.6100000143051147 4290222531
-0.02471590973436832 -0.04965510219335556 0.6110000014305115 4291076291
-0.02360270358622074 -0.04965510219335556 0.6110000014305115 4291603148
-0.02248949743807316 -0.04965510219335556 0.6110000014305115 4291604172
-0.02137629128992558 -0.04965510219335556 0.6110000014305115 4291735759
-0.02026308514177799 -0.04965510219335556 0.6110000014305115 4291736273
-0.01914987899363041 -0.04965510219335556 0.6110000014305115 4291801810
-0.01803667284548283 -0.04965510219335556 0.6110000014305115 4291538383
-0.01692346669733524 -0.04965510219335556 0.6110000014305115 4290945476
-0.01581026054918766 -0.04965510219335556 0.6110000014305115 4290681020
-0.0146970534697175 -0.04965510219335556 0.6110000014305115 4290943416
-0.01358384732156992 -0.04965510219335556 0.6110000014305115 4292061114
-0.01247064117342234 -0.04965510219335556 0.6110000014305115 4293179342
-0.01135743502527475 -0.04965510219335556 0.6110000014305115 4293047764
-0.01024422887712717 -0.04965510219335556 0.6110000014305115 4292456138
-0.009131022728979588 -0.04965510219335556 0.6110000014305115 4291536825
-0.008017816580832005 -0.04965510219335556 0.6110000014305115 4289958053
-0.006915910169482231 -0.04973636940121651 0.6119999885559082 4290024376
-0.0058008823543787 -0.04973636940121651 0.6119999885559082 4290748356
-0.004685854073613882 -0.04973636940121651 0.6119999885559082 4290682562
-0.003570826025679708 -0.04973636940121651 0.6119999885559082 4290682049
-0.002455797744914889 -0.04973636940121651 0.6119999885559082 4292059597
-0.001340769580565393 -0.04973636940121651 0.6119999885559082 4293770467
-0.1921683251857758 -0.05434058606624603 0.6840000152587891 4279959562
-0.1909221261739731 -0.05434058606624603 0.6840000152587891 4280223242
-0.1893986016511917 -0.05426114425063133 0.6830000281333923 4280749586
-0.1881542205810547 -0.05426114425063133 0.6830000281333923 4279896593
-0.1871834993362427 -0.05434058606624603 0.6840000152587891 4279830288
-0.1859372854232788 -0.05434058606624603 0.6840000152587891 4280423473
-0.1846910864114761 -0.05434058606624603 0.6840000152587891 4281213246
-0.183981254696846 -0.05449947714805603 0.6859999895095825 4281017643
-0.1827314049005508 -0.05449947714805603 0.6859999895095825 4280951850
-0.1820106655359268 -0.05465836822986603 0.6880000233650208 4280294189
-0.1812826246023178 -0.05481725931167603 0.6899999976158142 4279307294
-0.1802863776683807 -0.05489670485258102 0.6909999847412109 4279896617
-0.179545596241951 -0.05505559593439102 0.6930000185966492 4280028203
-0.1785402595996857 -0.05513504147529602 0.6940000057220459 4280093204
-0.1777866929769516 -0.05529392883181572 0.6959999799728394 4279173125
-0.1765186190605164 -0.05529392883181572 0.6959999799728394 4279894017
-0.1765095293521881 -0.05569115281105042 0.7009999752044678 4280484618
-0.1757323145866394 -0.05585004761815071 0.703000009059906 4281341979
-0.1744515001773834 -0.05585004761815071 0.703000009059906 4282065703
-0.1734169870615005 -0.05592949315905571 0.7039999961853027 4281739055
-0.1713370680809021 -0.05608838424086571 0.7059999704360962 4281213492
-0.170050784945488 -0.05608838424086571 0.7059999704360962 4281410871
-0.1687644869089127 -0.05608838424086571 0.7059999704360962 4281280818
-0.1674781888723373 -0.05608838424086571 0.7059999704360962 4281214769
-0.1657211184501648 -0.05592949315905571 0.7039999961853027 4281476148
-0.1644384562969208 -0.05592949315905571 0.7039999961853027 4281541942
-0.1369252651929855 -0.04846163466572762 0.6100000143051147 4294967295
-0.1358138918876648 -0.04846163466572762 0.6100000143051147 4294967295
-0.1344816833734512 -0.04838218912482262 0.609000027179718 4294967295
-0.133153110742569 -0.04830274358391762 0.6079999804496765 4294967295
-0.1318281888961792 -0.04822329804301262 0.6069999933242798 4294967295
-0.1307222694158554 -0.04822329804301262 0.6069999933242798 4294967295
-0.1296163648366928 -0.04822329804301262 0.6069999933242798 4294967295
-0.1282987296581268 -0.04814385250210762 0.6060000061988831 4294967295
-0.1271946430206299 -0.04814385250210762 0.6060000061988831 4294967295
-0.1260905414819717 -0.04814385250210762 0.6060000061988831 4294769916
-0.124986432492733 -0.04814385250210762 0.6060000061988831 4294899967
-0.1234734803438187 -0.04798496142029762 0.6039999723434448 4294965759
-0.1223730370402336 -0.04798496142029762 0.6039999723434448 4294636799
-0.1212725788354874 -0.04798496142029762 0.6039999723434448 4294110460
-0.1201721280813217 -0.04798496142029762 0.6039999723434448 4293782271
-0.1188745349645615 -0.04790551587939262 0.6029999852180481 4293716735
-0.1175805851817131 -0.04782607406377792 0.6019999980926514 4293518847
-0.1164837777614594 -0.04782607406377792 0.6019999980926514 4293387263
-0.1153869777917862 -0.04782607406377792 0.6019999980926514 4293452287
-0.1142901629209518 -0.04782607406377792 0.6019999980926514 4293452287
-0.1131933555006981 -0.04782607406377792 0.6019999980926514 4293385727
-0.1120965406298637 -0.04782607406377792 0.6019999980926514 4292859643
-0.1109997406601906 -0.04782607406377792 0.6019999980926514 4292792830
-0.1099029257893562 -0.04782607406377792 0.6019999980926514 4292792830
-0.1088061183691025 -0.04782607406377792 0.6019999980926514 4292989182
-0.1077093109488487 -0.04782607406377792 0.6019999980926514 4293054974
-0.106612503528595 -0.04782607406377792 0.6019999980926514 4292660475
-0.1056909635663033 -0.04790551587939262 0.6029999852180481 4292199924
-0.1045923382043839 -0.04790551587939262 0.6029999852180481 4291870964
-0.1034937053918839 -0.04790551587939262 0.6029999852180481 4291739635
-0.1025648862123489 -0.04798496142029762 0.6039999723434448 4291871220
-0.1014644354581833 -0.04798496142029762 0.6039999723434448 4291937013
-0.100363977253437 -0.04798496142029762 0.6039999723434448 4291937002
-0.09926352649927139 -0.04798496142029762 0.6039999723434448 4291673829
-0.09816307574510574 -0.04798496142029762 0.6039999723434448 4291739366
-0.0970626175403595 -0.04798496142029762 0.6039999723434448 4291410401
-0.09580329060554504 -0.04790551587939262 0.6029999852180481 4291278820
-0.09470466524362564 -0.04790551587939262 0.6029999852180481 4291278564
-0.09360603243112564 -0.04790551587939262 0.6029999852180481 4291344095
-0.09235398471355438 -0.04782607406377792 0.6019999980926514 4291344095
-0.09125717729330063 -0.04782607406377792 0.6019999980926514 4291277790
-0.09031013399362564 -0.04790551587939262 0.6029999852180481 4291146461
-0.08921150118112564 -0.04790551587939262 0.6029999852180481 4291145692
-0.08811287581920624 -0.04790551587939262 0.6029999852180481 4291079899
-0.08701424300670624 -0.04790551587939262 0.6029999852180481 4291013594
-0.08591561764478683 -0.04790551587939262 0.6029999852180481 4290947801
-0.08481698483228683 -0.04790551587939262 0.6029999852180481 4290619348
-0.08385718613862991 -0.04798496142029762 0.6039999723434448 4290421969
-0.08275673538446426 -0.04798496142029762 0.6039999723434448 4290683340
-0.08152109384536743 -0.04790551587939262 0.6029999852180481 4290880461
-0.08042246103286743 -0.04790551587939262 0.6029999852180481 4291143103
-0.07945537567138672 -0.04798496142029762 0.6039999723434448 4291603651
-0.07835492491722107 -0.04798496142029762 0.6039999723434448 4291670460
-0.07725446671247482 -0.04798496142029762 0.6039999723434448 4291736251
-0.07615401595830917 -0.04798496142029762 0.6039999723434448 4291735481
-0.07505356520414352 -0.04798496142029762 0.6039999723434448 4291669432
-0.07321451604366302 -0.04822329804301262 0.6069999933242798 4291668924
-0.07210859656333923 -0.04822329804301262 0.6069999933242798 4291602874
-0.07100267708301544 -0.04822329804301262 0.6069999933242798 4291471288
-0.06989675760269165 -0.04822329804301262 0.6069999933242798 4291274162
-0.06879084557294846 -0.04822329804301262 0.6069999933242798 4291142575
-0.06768491864204407 -0.04822329804301262 0.6069999933242798 4291208117
-0.06668869405984879 -0.04830274358391762 0.6079999804496765 4291471292
-0.06558094918727875 -0.04830274358391762 0.6079999804496765 4291406265
-0.06447320431470871 -0.04830274358391762 0.6079999804496765 4291340471
-0.06336546689271927 -0.04830274358391762 0.6079999804496765 4291209398
-0.06225772574543953 -0.04830274358391762 0.6079999804496765 4291143604
-0.06114998832345009 -0.04830274358391762 0.6079999804496765 4291077560
-0.06004224345088005 -0.04830274358391762 0.6079999804496765 4291077306
-0.05893450602889061 -0.04830274358391762 0.6079999804496765 4291011517
-0.0579218789935112 -0.04838218912482262 0.609000027179718 4290945725
-0.04475362226366997 -0.04854108020663261 0.6110000014305115 4290420678
-0.04364041611552238 -0.04854108020663261 0.6110000014305115 4290815942
-0.0425272099673748 -0.04854108020663261 0.6110000014305115 4290750144
-0.04141400381922722 -0.04854108020663261 0.6110000014305115 4290552510
-0.04023484140634537 -0.04846163466572762 0.6100000143051147 4290618049
-0.03912345692515373 -0.04846163466572762 0.6100000143051147 4290749634
-0.0380120687186718 -0.04846163466572762 0.6100000143051147 4290618046
-0.03696117922663689 -0.04854108020663261 0.6110000014305115 4290551997
-0.0358479730784893 -0.04854108020663261 0.6110000014305115 4290551741
-0.03473476693034172 -0.04854108020663261 0.6110000014305115 4290748346
-0.03362156078219414 -0.04854108020663261 0.6110000014305115 4291010743
-0.03250835463404655 -0.04854108020663261 0.6110000014305115 4290944953
-0.03134376555681229 -0.04846163466572762 0.6100000143051147 4291273920
-0.0302323792129755 -0.04846163466572762 0.6100000143051147 4291603915
-0.02912099473178387 -0.04846163466572762 0.6100000143051147 4291473875
-0.02800961211323738 -0.04846163466572762 0.6100000143051147 4291802586
-0.02689822763204575 -0.04846163466572762 0.6100000143051147 4291209942
-0.02578684315085411 -0.04846163466572762 0.6100000143051147 4290287808
-0.02475636079907417 -0.04862052574753761 0.6119999885559082 4291075775
-0.02364133298397064 -0.04862052574753761 0.6119999885559082 4291602889
-0.02248949743807316 -0.04854108020663261 0.6110000014305115 4291406794
-0.02137629128992558 -0.04854108020663261 0.6110000014305115 4291472586
-0.0202962476760149 -0.04862052574753761 0.6119999885559082 4291472587
-0.01918121986091137 -0.04862052574753761 0.6119999885559082 4291472587
-0.01803667284548283 -0.04854108020663261 0.6110000014305115 4291471562
-0.01692346669733524 -0.04854108020663261 0.6110000014305115 4291076804
-0.01583613455295563 -0.04862052574753761 0.6119999885559082 4290746813
-0.01472110766917467 -0.04862052574753761 0.6119999885559082 4290877881
-0.01360607985407114 -0.04862052574753761 0.6119999885559082 4291863737
-0.01249105203896761 -0.04862052574753761 0.6119999885559082 4292916171
-0.0113760232925415 -0.04862052574753761 0.6119999885559082 4292521424
-0.01026099547743797 -0.04862052574753761 0.6119999885559082 4291666625
-0.009160910733044147 -0.04869996756315231 0.6129999756813049 4291010481
-0.008030938915908337 -0.04862052574753761 0.6119999885559082 4290286763
-0.006915910169482231 -0.04862052574753761 0.6119999885559082 4290222782
-0.005810360424220562 -0.04869996756315231 0.6129999756813049 4290617539
-0.004693510476499796 -0.04869996756315231 0.6129999756813049 4290485950
-0.00357666052877903 -0.04869996756315231 0.6129999756813049 4290353594
-0.00245981034822762 -0.04869996756315231 0.6129999756813049 4291665090
-0.001342960400506854 -0.04869996756315231 0.6129999756813049 4293573342
-0.0002261103363707662 -0.04869996756315231 0.6129999756813049 4293969880
-0.1906430125236511 -0.05301584303379059 0.6830000281333923 4278190080
-0.1893986016511917 -0.05301584303379059 0.6830000281333923 4278256128
-0.1881542205810547 -0.05301584303379059 0.6830000281333923 4278649099
-0.1871834993362427 -0.05309346690773964 0.6840000152587891 4279306261
-0.1859372854232788 -0.05309346690773964 0.6840000152587891 4280028191
-0.1846910864114761 -0.05309346690773964 0.6840000152587891 4280422949
-0.183981254696846 -0.05324871093034744 0.6859999895095825 4280753963
-0.1840632706880569 -0.0536368191242218 0.6909999847412109 4280819756
-0.1828043013811111 -0.0536368191242218 0.6909999847412109 4281017649
-0.1820708066225052 -0.05379206314682961 0.6930000185966492 4280885805
-0.1810691058635712 -0.05386968329548836 0.6940000057220459 4280751904
-0.1803228408098221 -0.05402493104338646 0.6959999799728394 4280817954
-0.1790547668933868 -0.05402493104338646 0.6959999799728394 4280490792
-0.1780421584844589 -0.05410255491733551 0.6970000267028809 4279372055
-0.176772266626358 -0.05410255491733551 0.6970000267028809 4279239436
-0.1770131438970566 -0.05456828325986862 0.703000009059906 4279567889
-0.1759822964668274 -0.05464590340852737 0.7039999961853027 4280159513
-0.1746996343135834 -0.05464590340852737 0.7039999961853027 4280686113
-0.1734169870615005 -0.05464590340852737 0.7039999961853027 4281475369
-0.1687644869089127 -0.05480114743113518 0.7059999704360962 4281148980
-0.1674781888723373 -0.05480114743113518 0.7059999704360962 4281214516
-0.1657211184501648 -0.05464590340852737 0.7039999961853027 4281410357
-0.1644384562969208 -0.05464590340852737 0.7039999961853027 4281541686
-0.1631558239459991 -0.05464590340852737 0.7039999961853027 4281476152
-0.1369252651929855 -0.04734943434596062 0.6100000143051147 4294966013
-0.1358138918876648 -0.04734943434596062 0.6100000143051147 4294967295
-0.1344816833734512 -0.04727181419730186 0.609000027179718 4294967295
-0.133153110742569 -0.04719419032335281 0.6079999804496765 4294967295
-0.1318281888961792 -0.04711657017469406 0.6069999933242798 4294967295
-0.1307222694158554 -0.04711657017469406 0.6069999933242798 4294967295
-0.1296163648366928 -0.04711657017469406 0.6069999933242798 4294967295
-0.1282987296581268 -0.04703894630074501 0.6060000061988831 4294967295
-0.1271946430206299 -0.04703894630074501 0.6060000061988831 4294967295
-0.1260905414819717 -0.04703894630074501 0.6060000061988831 4294440951
-0.1245739236474037 -0.04688370227813721 0.6039999723434448 4294504191
-0.1234734803438187 -0.04688370227813721 0.6039999723434448 4294569983
-0.1223730370402336 -0.04688370227813721 0.6039999723434448 4294044159
-0.1212725788354874 -0.04688370227813721 0.6039999723434448 4293715197
-0.1201721280813217 -0.04688370227813721 0.6039999723434448 4293387775
-0.1188745349645615 -0.04680608212947845 0.6029999852180481 4293519103
-0.1177759096026421 -0.04680608212947845 0.6029999852180481 4293387263
-0.1164837777614594 -0.0467284619808197 0.6019999980926514 4293189887
-0.1153869777917862 -0.0467284619808197 0.6019999980926514 4293123327
-0.1142901629209518 -0.0467284619808197 0.6019999980926514 4293057279
-0.1131933555006981 -0.0467284619808197 0.6019999980926514 4293122812
-0.1120965406298637 -0.0467284619808197 0.6019999980926514 4292793847
-0.1109997406601906 -0.0467284619808197 0.6019999980926514 4292727033
-0.1099029257893562 -0.0467284619808197 0.6019999980926514 4292661240
-0.1088061183691025 -0.0467284619808197 0.6019999980926514 4292857591
-0.1077093109488487 -0.0467284619808197 0.6019999980926514 4292857591
-0.1067895963788033 -0.04680608212947845 0.6029999852180481 4292529400
-0.1056909635663033 -0.04680608212947845 0.6029999852180481 4292002800
-0.1045923382043839 -0.04680608212947845 0.6029999852180481 4291805673
-0.1036653369665146 -0.04688370227813721 0.6039999723434448 4291871209
-0.1025648862123489 -0.04688370227813721 0.6039999723434448 4291739885
-0.1014644354581833 -0.04688370227813721 0.6039999723434448 4291608300
-0.100363977253437 -0.04688370227813721 0.6039999723434448 4291673321
-0.09926352649927139 -0.04688370227813721 0.6039999723434448 4291410405
-0.09816307574510574 -0.04688370227813721 0.6039999723434448 4291541479
-0.0970626175403595 -0.04688370227813721 0.6039999723434448 4291278307
-0.09580329060554504 -0.04680608212947845 0.6029999852180481 4291080420
-0.09470466524362564 -0.04680608212947845 0.6029999852180481 4291014628
-0.09360603243112564 -0.04680608212947845 0.6029999852180481 4291145950
-0.09235398471355438 -0.0467284619808197 0.6019999980926514 4291146207
-0.09125717729330063 -0.0467284619808197 0.6019999980926514 4290882524
-0.09031013399362564 -0.04680608212947845 0.6029999852180481 4290816731
-0.08921150118112564 -0.04680608212947845 0.6029999852180481 4290881753
-0.08825899660587311 -0.04688370227813721 0.6039999723434448 4290881497
-0.08701424300670624 -0.04680608212947845 0.6029999852180481 4290815959
-0.08591561764478683 -0.04680608212947845 0.6029999852180481 4290881753
-0.08495763689279556 -0.04688370227813721 0.6039999723434448 4290619090
-0.08385718613862991 -0.04688370227813721 0.6039999723434448 4290487503
-0.08275673538446426 -0.04688370227813721 0.6039999723434448 4290814662
-0.08165628463029861 -0.04688370227813721 0.6039999723434448 4291143369
-0.08055582642555237 -0.04688370227813721 0.6039999723434448 4291340216
-0.07945537567138672 -0.04688370227813721 0.6039999723434448 4291800763
-0.07835492491722107 -0.04688370227813721 0.6039999723434448 4291866810
-0.07725446671247482 -0.04688370227813721 0.6039999723434448 4291932602
-0.07615401595830917 -0.04688370227813721 0.6039999723434448 4291931833
-0.06989675760269165 -0.04711657017469406 0.6069999933242798 4291405748
-0.06879084557294846 -0.04711657017469406 0.6069999933242798 4291208368
-0.06768491864204407 -0.04711657017469406 0.6069999933242798 4291208117
-0.06657900661230087 -0.04711657017469406 0.6069999933242798 4291405498
-0.06547308713197708 -0.04711657017469406 0.6069999933242798 4291406008
-0.06436716765165329 -0.04711657017469406 0.6069999933242798 4291340471
-0.06346969306468964 -0.04727181419730186 0.609000027179718 4291274682
-0.06236012652516365 -0.04727181419730186 0.609000027179718 4291274683
-0.06125057116150856 -0.04727181419730186 0.609000027179718 4291208891
-0.06014100462198257 -0.04727181419730186 0.609000027179718 4291208892
-0.05912837386131287 -0.04734943434596062 0.6100000143051147 4291208637
-0.04475362226366997 -0.04742705821990967 0.6110000014305115 4290618057
-0.04364041611552238 -0.04742705821990967 0.6110000014305115 4290947272
-0.0425272099673748 -0.04742705821990967 0.6110000014305115 4290816193
-0.04141400381922722 -0.04742705821990967 0.6110000014305115 4290684351
-0.04023484140634537 -0.04734943434596062 0.6100000143051147 4290749889
-0.03912345692515373 -0.04734943434596062 0.6100000143051147 4290880961
-0.0380120687186718 -0.04734943434596062 0.6100000143051147 4290945982
-0.03696117922663689 -0.04742705821990967 0.6110000014305115 4290748861
-0.0358479730784893 -0.04742705821990967 0.6110000014305115 4290551485
-0.03473476693034172 -0.04742705821990967 0.6110000014305115 4290682556
-0.03362156078219414 -0.04742705821990967 0.6110000014305115 4291142593
-0.03250835463404655 -0.04742705821990967 0.6110000014305115 4291406019
-0.03139514848589897 -0.04742705821990967 0.6110000014305115 4291668930
-0.03028194047510624 -0.04742705821990967 0.6110000014305115 4291669706
-0.02916873432695866 -0.04742705821990967 0.6110000014305115 4291144394
-0.02805552817881107 -0.04742705821990967 0.6110000014305115 4291078091
-0.02694232203066349 -0.04742705821990967 0.6110000014305115 4291143118
-0.02582911774516106 -0.04742705821990967 0.6110000014305115 4290944968
-0.02475636079907417 -0.04750467836856842 0.6119999885559082 4291141317
-0.02364133298397064 -0.04750467836856842 0.6119999885559082 4291339464
-0.02252630330622196 -0.04750467836856842 0.6119999885559082 4291406021
-0.02141127735376358 -0.04750467836856842 0.6119999885559082 4291406278
-0.0202962476760149 -0.04750467836856842 0.6119999885559082 4291406021
-0.01921256259083748 -0.04758230224251747 0.6129999756813049 4291339970
-0.01803667284548283 -0.04742705821990967 0.6110000014305115 4291405250
-0.01692346669733524 -0.04742705821990967 0.6110000014305115 4291404993
-0.01583613455295563 -0.04750467836856842 0.6119999885559082 4291338946
-0.01472110766917467 -0.04750467836856842 0.6119999885559082 4291535810
-0.01360607985407114 -0.04750467836856842 0.6119999885559082 4292061632
-0.01249105203896761 -0.04750467836856842 0.6119999885559082 4292654025
-0.01139461062848568 -0.04758230224251747 0.6129999756813049 4292062659
-0.010294527746737 -0.04765992611646652 0.6140000224113464 4290878642
-0.009160910733044147 -0.04758230224251747 0.6129999756813049 4290615724
-0.008044061250984669 -0.04758230224251747 0.6129999756813049 4290418605
-0.006938511971384287 -0.04765992611646652 0.6140000224113464 4290419131
-0.005819839891046286 -0.04765992611646652 0.6140000224113464 4290616765
-0.004693510476499796 -0.04758230224251747 0.6129999756813049 4290354362
-0.00357666052877903 -0.04758230224251747 0.6129999756813049 4290090674
-0.00245981034822762 -0.04758230224251747 0.6129999756813049 4291271089
-0.001342960400506854 -0.04758230224251747 0.6129999756813049 4293179344
-0.0002261103363707662 -0.04758230224251747 0.6129999756813049 4293902558
-0.1997169703245163 -0.05154315009713173 0.6800000071525574 4281083187
-0.1990618109703064 -0.05169474333524704 0.6819999814033508 4281083187
-0.1841270476579666 -0.0527559258043766 0.6959999799728394 4280622370
-0.1828589886426926 -0.0527559258043766 0.6959999799728394 4281806644
-0.1815909147262573 -0.0527559258043766 0.6959999799728394 4281937954
-0.1805819272994995 -0.05283172801136971 0.6970000267028809 4281280025
-0.1795692890882492 -0.05290752649307251 0.6980000138282776 4280489767
-0.1790638864040375 -0.05313492193818092 0.7009999752044678 4279898142
-0.177786722779274 -0.05313492193818092 0.7009999752044678 4279305502
-0.1770131438970566 -0.05328652262687683 0.703000009059906 4278846231
-0.1759822964668274 -0.05336231738328934 0.7039999961853027 4279173651
-0.1746996343135834 -0.05336231738328934 0.7039999961853027 4279633693
-0.1734169870615005 -0.05336231738328934 0.7039999961853027 4280356893
-0.170050784945488 -0.05351391434669495 0.7059999704360962 4281212466
-0.1687644869089127 -0.05351391434669495 0.7059999704360962 4281082673
-0.1674781888723373 -0.05351391434669495 0.7059999704360962 4281148210
-0.1661919057369232 -0.05351391434669495 0.7059999704360962 4281344051
-0.1649056077003479 -0.05351391434669495 0.7059999704360962 4281343795
-0.1638510823249817 -0.05358971655368805 0.7070000171661377 4281278772
-0.1615029722452164 -0.05366551503539085 0.7080000042915344 4280812805
-0.1369252651929855 -0.04623723775148392 0.6100000143051147 4293973978
-0.1358138918876648 -0.04623723775148392 0.6100000143051147 4294967295
-0.1344816833734512 -0.04616143926978111 0.609000027179718 4294967295
-0.133153110742569 -0.04608564078807831 0.6079999804496765 4294967295
-0.1318281888961792 -0.0460098423063755 0.6069999933242798 4294967295
-0.1307222694158554 -0.0460098423063755 0.6069999933242798 4294967295
-0.1296163648366928 -0.0460098423063755 0.6069999933242798 4294967295
-0.1282987296581268 -0.0459340438246727 0.6060000061988831 4294967295
-0.1271946430206299 -0.0459340438246727 0.6060000061988831 4294967295
-0.1260905414819717 -0.0459340438246727 0.6060000061988831 4294111987
-0.1245739236474037 -0.04578244313597679 0.6039999723434448 4293715199
-0.1234734803438187 -0.04578244313597679 0.6039999723434448 4293846783
-0.1227782443165779 -0.0459340438246727 0.6060000061988831 4293714431
-0.1216741427779198 -0.0459340438246727 0.6060000061988831 4293517055
-0.1205700561404228 -0.0459340438246727 0.6060000061988831 4293189375
-0.1190716698765755 -0.04578244313597679 0.6039999723434448 4293320959
-0.1179712265729904 -0.04578244313597679 0.6039999723434448 4293254911
-0.1166772693395615 -0.04570664465427399 0.6029999852180481 4293057535
-0.1155786365270615 -0.04570664465427399 0.6029999852180481 4293122559
-0.1144800186157227 -0.04570664465427399 0.6029999852180481 4293056767
-0.1131933555006981 -0.04563084617257118 0.6019999980926514 4292991227
-0.1122827529907227 -0.04570664465427399 0.6029999852180481 4292728311
-0.1111841201782227 -0.04570664465427399 0.6029999852180481 4292463861
-0.1100854873657227 -0.04570664465427399 0.6029999852180481 4292200689
-0.1089868545532227 -0.04570664465427399 0.6029999852180481 4292396785
-0.1078882291913033 -0.04570664465427399 0.6029999852180481 4292330992
-0.1067895963788033 -0.04570664465427399 0.6029999852180481 4292265971
-0.1058662384748459 -0.04578244313597679 0.6039999723434448 4291805678
-0.1047657877206802 -0.04578244313597679 0.6039999723434448 4291739622
-0.1036653369665146 -0.04578244313597679 0.6039999723434448 4291805159
-0.1025648862123489 -0.04578244313597679 0.6039999723434448 4291608042
-0.1014644354581833 -0.04578244313597679 0.6039999723434448 4291410920
-0.100363977253437 -0.04578244313597679 0.6039999723434448 4291541479
-0.09926352649927139 -0.04578244313597679 0.6039999723434448 4291212770
-0.09816307574510574 -0.04578244313597679 0.6039999723434448 4291343586
-0.0970626175403595 -0.04578244313597679 0.6039999723434448 4291146206
-0.09596216678619385 -0.04578244313597679 0.6039999723434448 4291013601
-0.0948617160320282 -0.04578244313597679 0.6039999723434448 4291013601
-0.09376126527786255 -0.04578244313597679 0.6039999723434448 4291014108
-0.0926608070731163 -0.04578244313597679 0.6039999723434448 4291014365
-0.09156035631895065 -0.04578244313597679 0.6039999723434448 4290750425
-0.090459905564785 -0.04578244313597679 0.6039999723434448 4290684632
-0.08935944736003876 -0.04578244313597679 0.6039999723434448 4290683861
-0.08825899660587311 -0.04578244313597679 0.6039999723434448 4290683604
-0.08715854585170746 -0.04578244313597679 0.6039999723434448 4290684114
-0.08605809509754181 -0.04578244313597679 0.6039999723434448 4290947286
-0.08495763689279556 -0.04578244313597679 0.6039999723434448 4291013327
-0.08385718613862991 -0.04578244313597679 0.6039999723434448 4290881740
-0.08275673538446426 -0.04578244313597679 0.6039999723434448 4291208902
-0.08165628463029861 -0.04578244313597679 0.6039999723434448 4291537351
-0.08055582642555237 -0.04578244313597679 0.6039999723434448 4291668662
-0.07945537567138672 -0.04578244313597679 0.6039999723434448 4291931831
-0.07835492491722107 -0.04578244313597679 0.6039999723434448 4291997624
-0.0775102823972702 -0.0459340438246727 0.6060000061988831 4291997881
-0.06657900661230087 -0.0460098423063755 0.6069999933242798 4291273654
-0.06547308713197708 -0.0460098423063755 0.6069999933242798 4291339959
-0.06436716765165329 -0.0460098423063755 0.6069999933242798 4291405752
-0.06346969306468964 -0.04616143926978111 0.609000027179718 4291339963
-0.06276971101760864 -0.04646462947130203 0.6129999756813049 4291274172
-0.06165286526083946 -0.04646462947130203 0.6129999756813049 4291274171
-0.06053601205348969 -0.04646462947130203 0.6129999756813049 4291339708
-0.05941916257143021 -0.04646462947130203 0.6129999756813049 4291339965
-0.04482686892151833 -0.04638883098959923 0.6119999885559082 4290749382
-0.04371184110641479 -0.04638883098959923 0.6119999885559082 4291143879
-0.04259681329131126 -0.04638883098959923 0.6119999885559082 4291143874
-0.04148178175091743 -0.04638883098959923 0.6119999885559082 4291012545
-0.0403667539358139 -0.04638883098959923 0.6119999885559082 4290881730
-0.03925172612071037 -0.04638883098959923 0.6119999885559082 4291012033
-0.03813669830560684 -0.04638883098959923 0.6119999885559082 4291142848
-0.03702167049050331 -0.04638883098959923 0.6119999885559082 4290945727
-0.0358479730784893 -0.04631303250789642 0.6110000014305115 4290485690
-0.03473476693034172 -0.04631303250789642 0.6110000014305115 4290419897
-0.03362156078219414 -0.04631303250789642 0.6110000014305115 4291077570
-0.03250835463404655 -0.04631303250789642 0.6110000014305115 4291604167
-0.03139514848589897 -0.04631303250789642 0.6110000014305115 4291735748
-0.03028194047510624 -0.04631303250789642 0.6110000014305115 4291670216
-0.02916873432695866 -0.04631303250789642 0.6110000014305115 4291209415
-0.02805552817881107 -0.04631303250789642 0.6110000014305115 4290945733
-0.02698641642928123 -0.04638883098959923 0.6119999885559082 4291142345
-0.0258713886141777 -0.04638883098959923 0.6119999885559082 4291207881
-0.02479681186378002 -0.04646462947130203 0.6129999756813049 4291141830
-0.02364133298397064 -0.04638883098959923 0.6119999885559082 4291207620
-0.02252630330622196 -0.04638883098959923 0.6119999885559082 4291273666
-0.02141127735376358 -0.04638883098959923 0.6119999885559082 4291339459
-0.02032941207289696 -0.04646462947130203 0.6129999756813049 4291339458
-0.01921256259083748 -0.04646462947130203 0.6129999756813049 4291339200
-0.01806619204580784 -0.04638883098959923 0.6119999885559082 4291536063
-0.01695116423070431 -0.04638883098959923 0.6119999885559082 4291667394
-0.01583613455295563 -0.04638883098959923 0.6119999885559082 4291732677
-0.01472110766917467 -0.04638883098959923 0.6119999885559082 4291798725
-0.01362831145524979 -0.04646462947130203 0.6129999756813049 4291733699
-0.01251146104186773 -0.04646462947130203 0.6129999756813049 4291865285
-0.011413199827075 -0.04654043167829514 0.6140000224113464 4291207870
-0.010294527746737 -0.04654043167829514 0.6140000224113464 4290089132
-0.009175856597721577 -0.04654043167829514 0.6140000224113464 4289957547
-0.008057183586061001 -0.04654043167829514 0.6140000224113464 4290286513
-0.006938511971384287 -0.04654043167829514 0.6140000224113464 4290417590
-0.005819839891046286 -0.04654043167829514 0.6140000224113464 4290418103
-0.004701167345046997 -0.04654043167829514 0.6140000224113464 4290221749
-0.003582495497539639 -0.04654043167829514 0.6140000224113464 4289958062
-0.002463823417201638 -0.04654043167829514 0.6140000224113464 4290810797
-0.001342960400506854 -0.04646462947130203 0.6129999756813049 4292521672
-0.0002261103363707662 -0.04646462947130203 0.6129999756813049 4293377752
-0.1839099079370499 -0.05178282782435417 0.699999988079071 4280949536
-0.1826345324516296 -0.05178282782435417 0.699999988079071 4281410852
-0.1813591867685318 -0.05178282782435417 0.699999988079071 4280949532
-0.1800838112831116 -0.05178282782435417 0.699999988079071 4282254620
-0.1790638864040375 -0.05185680463910103 0.7009999752044678 4283638067
-0.177786722779274 -0.05185680463910103 0.7009999752044678 4283374912
-0.1746996343135834 -0.0520787313580513 0.7039999961853027 4279501327
-0.1734169870615005 -0.0520787313580513 0.7039999961853027 4279502869
-0.1721343398094177 -0.0520787313580513 0.7039999961853027 4280358179
-0.1713370680809021 -0.05222668126225471 0.7059999704360962 4280817962
-0.170050784945488 -0.05222668126225471 0.7059999704360962 4281081133
-0.1690035462379456 -0.05230066180229187 0.7070000171661377 4281147183
-0.1677154302597046 -0.05230066180229187 0.7070000171661377 4281147183
-0.1661919057369232 -0.05222668126225471 0.7059999704360962 4281212460
-0.1649056077003479 -0.05222668126225471 0.7059999704360962 4281277996
-0.1638510823249817 -0.05230066180229187 0.7070000171661377 4281410096
-0.162792906165123 -0.05237463116645813 0.7080000042915344 4280093978
-0.1615029722452164 -0.05237463116645813 0.7080000042915344 4279894274
-0.1380366533994675 -0.04512503743171692 0.6100000143051147 4281470737
-0.1369252651929855 -0.04512503743171692 0.6100000143051147 4289227926
-0.1358138918876648 -0.04512503743171692 0.6100000143051147 4294964479
-0.1344816833734512 -0.04505106434226036 0.609000027179718 4294967295
-0.1333721280097961 -0.04505106434226036 0.609000027179718 4294967295
-0.1320453733205795 -0.04497708380222321 0.6079999804496765 4294967295
-0.1309376209974289 -0.04497708380222321 0.6079999804496765 4294967295
-0.1296163648366928 -0.04490311071276665 0.6069999933242798 4294967295
-0.1282987296581268 -0.04482913389801979 0.6060000061988831 4294967295
-0.1271946430206299 -0.04482913389801979 0.6060000061988831 4294967295
-0.1260905414819717 -0.04482913389801979 0.6060000061988831 4294046194
-0.124986432492733 -0.04482913389801979 0.6060000061988831 4293518335
-0.1238823458552361 -0.04482913389801979 0.6060000061988831 4293452543
-0.1227782443165779 -0.04482913389801979 0.6060000061988831 4293582847
-0.1216741427779198 -0.04482913389801979 0.6060000061988831 4293516799
-0.1205700561404228 -0.04482913389801979 0.6060000061988831 4293254399
-0.1190716698765755 -0.04468118399381638 0.6039999723434448 4293451775
-0.1179712265729904 -0.04468118399381638 0.6039999723434448 4293188607
-0.1168707609176636 -0.04468118399381638 0.6039999723434448 4292859391
-0.1157703101634979 -0.04468118399381638 0.6039999723434448 4292727034
-0.1144800186157227 -0.04460720717906952 0.6029999852180481 4292727291
-0.1133813858032227 -0.04460720717906952 0.6029999852180481 4292662014
-0.1124689504504204 -0.04468118399381638 0.6039999723434448 4292596221
-0.1111841201782227 -0.04460720717906952 0.6029999852180481 4292200950
-0.1102680489420891 -0.04468118399381638 0.6039999723434448 4291806192
-0.1091675981879234 -0.04468118399381638 0.6039999723434448 4292001775
-0.1080671399831772 -0.04468118399381638 0.6039999723434448 4292002031
-0.1069666892290115 -0.04468118399381638 0.6039999723434448 4291936747
-0.1058662384748459 -0.04468118399381638 0.6039999723434448 4291673832
-0.1047657877206802 -0.04468118399381638 0.6039999723434448 4291410409
-0.1036653369665146 -0.04468118399381638 0.6039999723434448 4291410409
-0.1025648862123489 -0.04468118399381638 0.6039999723434448 4291212778
-0.1014644354581833 -0.04468118399381638 0.6039999723434448 4291015657
-0.100363977253437 -0.04468118399381638 0.6039999723434448 4291146724
-0.09926352649927139 -0.04468118399381638 0.6039999723434448 4290949344
-0.09816307574510574 -0.04468118399381638 0.6039999723434448 4290949333
-0.0970626175403595 -0.04468118399381638 0.6039999723434448 4290751697
-0.09596216678619385 -0.04468118399381638 0.6039999723434448 4290948059
-0.0948617160320282 -0.04468118399381638 0.6039999723434448 4291013596
-0.09376126527786255 -0.04468118399381638 0.6039999723434448 4291014107
-0.0926608070731163 -0.04468118399381638 0.6039999723434448 4291014364
-0.09156035631895065 -0.04468118399381638 0.6039999723434448 4290947543
-0.090459905564785 -0.04468118399381638 0.6039999723434448 4290882007
-0.08935944736003876 -0.04468118399381638 0.6039999723434448 4290881491
-0.08825899660587311 -0.04468118399381638 0.6039999723434448 4290947284
-0.08715854585170746 -0.04468118399381638 0.6039999723434448 4290947534
-0.08605809509754181 -0.04468118399381638 0.6039999723434448 4291144912
-0.08495763689279556 -0.04468118399381638 0.6039999723434448 4291341000
-0.08385718613862991 -0.04468118399381638 0.6039999723434448 4291209156
-0.08303077518939972 -0.04482913389801979 0.6060000061988831 4291405506
-0.08165628463029861 -0.04468118399381638 0.6039999723434448 4291865800
-0.08055582642555237 -0.04468118399381638 0.6039999723434448 4291800759
-0.07945537567138672 -0.04468118399381638 0.6039999723434448 4291866805
-0.07835492491722107 -0.04468118399381638 0.6039999723434448 4291997879
-0.0775102823972702 -0.04482913389801979 0.6060000061988831 4291997623
-0.06558094918727875 -0.04497708380222321 0.6079999804496765 4291339445
-0.06447320431470871 -0.04497708380222321 0.6079999804496765 4291799997
-0.06346969306468964 -0.04505106434226036 0.609000027179718 4291734204
-0.06276971101760864 -0.04534696042537689 0.6129999756813049 4291405240
-0.06165286526083946 -0.04534696042537689 0.6129999756813049 4291273914
-0.06053601205348969 -0.04534696042537689 0.6129999756813049 4291273915
-0.05941916257143021 -0.04534696042537689 0.6129999756813049 4291339964
-0.04490011557936668 -0.04534696042537689 0.6129999756813049 4290880964
-0.04378326237201691 -0.04534696042537689 0.6129999756813049 4291078596
-0.04266641288995743 -0.04534696042537689 0.6129999756813049 4291275715
-0.04154956340789795 -0.04534696042537689 0.6129999756813049 4291275460
-0.04043271020054817 -0.04534696042537689 0.6129999756813049 4291077826
-0.03931586444377899 -0.04534696042537689 0.6129999756813049 4291143105
-0.03819901123642921 -0.04534696042537689 0.6129999756813049 4291471556
-0.03708216175436974 -0.04534696042537689 0.6129999756813049 4291537602
-0.03596531227231026 -0.04534696042537689 0.6129999756813049 4291077560
-0.03479161486029625 -0.04527298733592033 0.6119999885559082 4290945722
-0.03367658704519272 -0.04527298733592033 0.6119999885559082 4291406020
-0.03256155550479889 -0.04527298733592033 0.6119999885559082 4291734983
-0.03144652768969536 -0.04527298733592033 0.6119999885559082 4291801030
-0.03033150173723698 -0.04527298733592033 0.6119999885559082 4291735496
-0.02921647392213345 -0.04527298733592033 0.6119999885559082 4291209668
-0.02810144610702991 -0.04527298733592033 0.6119999885559082 4291011523
-0.02703051269054413 -0.04534696042537689 0.6129999756813049 4291207881
-0.0259136613458395 -0.04534696042537689 0.6129999756813049 4291207879
-0.02483726479113102 -0.04542094096541405 0.6140000224113464 4291141826
-0.02367996238172054 -0.04534696042537689 0.6129999756813049 4291076034
-0.02256311289966106 -0.04534696042537689 0.6129999756813049 4290944195
-0.02144626155495644 -0.04534696042537689 0.6129999756813049 4290944450
-0.02032941207289696 -0.04534696042537689 0.6129999756813049 4291076289
-0.01924390532076359 -0.04542094096541405 0.6140000224113464 4291207872
-0.01806619204580784 -0.04527298733592033 0.6119999885559082 4291535806
-0.01695116423070431 -0.04527298733592033 0.6119999885559082 4291667393
-0.01586201041936874 -0.04534696042537689 0.6129999756813049 4291798470
-0.01476921699941158 -0.04542094096541405 0.6140000224113464 4291733189
-0.01365054398775101 -0.04542094096541405 0.6140000224113464 4291273406
-0.01253187283873558 -0.04542094096541405 0.6140000224113464 4290747064
-0.011413199827075 -0.04542094096541405 0.6140000224113464 4290286262
-0.010294527746737 -0.04542094096541405 0.6140000224113464 4289825968
-0.009175856597721577 -0.04542094096541405 0.6140000224113464 4289760688
-0.008057183586061001 -0.04542094096541405 0.6140000224113464 4290023604
-0.006949812173843384 -0.04549491405487061 0.6150000095367432 4290154676
-0.005829317960888147 -0.04549491405487061 0.6150000095367432 4290154676
-0.004701167345046997 -0.04542094096541405 0.6140000224113464 4290023348
-0.003582495497539639 -0.04542094096541405 0.6140000224113464 4289825713
-0.002467836020514369 -0.04549491405487061 0.6150000095367432 4290350002
-0.001347342040389776 -0.04549491405487061 0.6150000095367432 4291468736
-0.1990618109703064 -0.04920779541134834 0.6819999814033508 4280556843
-0.1851852536201477 -0.05050653591752052 0.699999988079071 4279831312
-0.1839099079370499 -0.05050653591752052 0.699999988079071 4279633933
-0.1826345324516296 -0.05050653591752052 0.699999988079071 4279764502
-0.181618258357048 -0.05057868734002113 0.7009999752044678 4279895317
-0.1803410798311234 -0.05057868734002113 0.7009999752044678 4288614449
-0.1790638864040375 -0.05057868734002113 0.7009999752044678 4293747846
-0.177786722779274 -0.05057868734002113 0.7009999752044678 4293417089
-0.1734169870615005 -0.05079514533281326 0.7039999961853027 4278386969
-0.1721343398094177 -0.05079514533281326 0.7039999961853027 4279438381
-0.1713370680809021 -0.05093944445252419 0.7059999704360962 4280685099
-0.170050784945488 -0.05093944445252419 0.7059999704360962 4281080113
-0.1690035462379456 -0.05101160332560539 0.7070000171661377 4281081390
-0.1677154302597046 -0.05101160332560539 0.7070000171661377 4281081390
-0.1664273142814636 -0.05101160332560539 0.7070000171661377 4281015850
-0.1651391983032227 -0.05101160332560539 0.7070000171661377 4281147436
-0.1640828549861908 -0.0510837510228157 0.7080000042915344 4281606703
-0.162792906165123 -0.0510837510228157 0.7080000042915344 4281211688
-0.1615029722452164 -0.0510837510228157 0.7080000042915344 4280223247
-0.1602130383253098 -0.0510837510228157 0.7080000042915344 4279435269
-0.1369252651929855 -0.04401283711194992 0.6100000143051147 4283698764
-0.1358138918876648 -0.04401283711194992 0.6100000143051147 4294961657
-0.1344816833734512 -0.04394068941473961 0.609000027179718 4294967295
-0.1333721280097961 -0.04394068941473961 0.609000027179718 4294967295
-0.1320453733205795 -0.0438685305416584 0.6079999804496765 4294967295
-0.1309376209974289 -0.0438685305416584 0.6079999804496765 4294967295
-0.1296163648366928 -0.04379637911915779 0.6069999933242798 4294967295
-0.128510445356369 -0.04379637911915779 0.6069999933242798 4294967295
-0.1271946430206299 -0.04372423142194748 0.6060000061988831 4294967295
-0.1260905414819717 -0.04372423142194748 0.6060000061988831 4294177780
-0.124986432492733 -0.04372423142194748 0.6060000061988831 4293453311
-0.1238823458552361 -0.04372423142194748 0.6060000061988831 4293124348
-0.1227782443165779 -0.04372423142194748 0.6060000061988831 4293385727
-0.1216741427779198 -0.04372423142194748 0.6060000061988831 4293517055
-0.1205700561404228 -0.04372423142194748 0.6060000061988831 4293582847
-0.1190716698765755 -0.04357992112636566 0.6039999723434448 4293648639
-0.1179712265729904 -0.04357992112636566 0.6039999723434448 4293188351
-0.1168707609176636 -0.04357992112636566 0.6039999723434448 4292398843
-0.1157703101634979 -0.04357992112636566 0.6039999723434448 4292003568
-0.1146698594093323 -0.04357992112636566 0.6039999723434448 4292201203
-0.1135694086551666 -0.04357992112636566 0.6039999723434448 4292398329
-0.1124689504504204 -0.04357992112636566 0.6039999723434448 4292332793
-0.1113684996962547 -0.04357992112636566 0.6039999723434448 4292003572
-0.1102680489420891 -0.04357992112636566 0.6039999723434448 4291806193
-0.1091675981879234 -0.04357992112636566 0.6039999723434448 4291674092
-0.1080671399831772 -0.04357992112636566 0.6039999723434448 4291739884
-0.1069666892290115 -0.04357992112636566 0.6039999723434448 4291674344
-0.1058662384748459 -0.04357992112636566 0.6039999723434448 4291476708
-0.1047657877206802 -0.04357992112636566 0.6039999723434448 4291147239
-0.1036653369665146 -0.04357992112636566 0.6039999723434448 4291081447
-0.1025648862123489 -0.04357992112636566 0.6039999723434448 4290948839
-0.1014644354581833 -0.04357992112636566 0.6039999723434448 4290883046
-0.100363977253437 -0.04357992112636566 0.6039999723434448 4290686176
-0.09926352649927139 -0.04357992112636566 0.6039999723434448 4290620639
-0.09816307574510574 -0.04357992112636566 0.6039999723434448 4290620882
-0.0970626175403595 -0.04357992112636566 0.6039999723434448 4290620880
-0.09596216678619385 -0.04357992112636566 0.6039999723434448 4291013852
-0.0948617160320282 -0.04357992112636566 0.6039999723434448 4291013852
-0.09376126527786255 -0.04357992112636566 0.6039999723434448 4290882521
-0.0926608070731163 -0.04357992112636566 0.6039999723434448 4291014364
-0.09156035631895065 -0.04357992112636566 0.6039999723434448 4291013593
-0.090459905564785 -0.04357992112636566 0.6039999723434448 4291079385
-0.08935944736003876 -0.04357992112636566 0.6039999723434448 4291144661
-0.08825899660587311 -0.04357992112636566 0.6039999723434448 4291078868
-0.08715854585170746 -0.04357992112636566 0.6039999723434448 4291144396
-0.08605809509754181 -0.04357992112636566 0.6039999723434448 4291144652
-0.08495763689279556 -0.04357992112636566 0.6039999723434448 4291405759
-0.08385718613862991 -0.04357992112636566 0.6039999723434448 4291471037
-0.08303077518939972 -0.04372423142194748 0.6060000061988831 4291536315
-0.08165628463029861 -0.04357992112636566 0.6039999723434448 4292062659
-0.08055582642555237 -0.04357992112636566 0.6039999723434448 4291867064
-0.07945537567138672 -0.04357992112636566 0.6039999723434448 4291801525
-0.07835492491722107 -0.04357992112636566 0.6039999723434448 4291932343
-0.0650034174323082 -0.04422929137945175 0.6129999756813049 4291931583
-0.06388656049966812 -0.04422929137945175 0.6129999756813049 4291931582
-0.06276971101760864 -0.04422929137945175 0.6129999756813049 4291471287
-0.06165286526083946 -0.04422929137945175 0.6129999756813049 4291274167
-0.04497336223721504 -0.04430144652724266 0.6140000224113464 4290947011
-0.04385469108819962 -0.04430144652724266 0.6140000224113464 4291012801
-0.04273601621389389 -0.04430144652724266 0.6140000224113464 4291210433
-0.04154956340789795 -0.04422929137945175 0.6129999756813049 4291340996
-0.04043271020054817 -0.04422929137945175 0.6129999756813049 4291274435
-0.03938000276684761 -0.04430144652724266 0.6140000224113464 4291339713
-0.03826133161783218 -0.04430144652724266 0.6140000224113464 4291734213
-0.03708216175436974 -0.04422929137945175 0.6129999756813049 4291931590
-0.03596531227231026 -0.04422929137945175 0.6129999756813049 4291800002
-0.03479161486029625 -0.04415714368224144 0.6119999885559082 4291668673
-0.03367658704519272 -0.04415714368224144 0.6119999885559082 4291734724
-0.03261476382613182 -0.04422929137945175 0.6129999756813049 4291734724
-0.03144652768969536 -0.04415714368224144 0.6119999885559082 4291800518
-0.03033150173723698 -0.04415714368224144 0.6119999885559082 4291669191
-0.02926421165466309 -0.04422929137945175 0.6129999756813049 4291077571
-0.02814736217260361 -0.04422929137945175 0.6129999756813049 4290945473
-0.02703051269054413 -0.04422929137945175 0.6129999756813049 4291010754
-0.0259136613458395 -0.04422929137945175 0.6129999756813049 4290944704
-0.02483726479113102 -0.04430144652724266 0.6140000224113464 4290944446
-0.02371859364211559 -0.04430144652724266 0.6140000224113464 4290878655
-0.02256311289966106 -0.04422929137945175 0.6129999756813049 4290812610
-0.02144626155495644 -0.04422929137945175 0.6129999756813049 4290878657
-0.02036257646977901 -0.04430144652724266 0.6140000224113464 4290879423
-0.01924390532076359 -0.04430144652724266 0.6140000224113464 4290944701
